# .PCD v0.7 - Point Cloud Data file format
VERSION 0.7
FIELDS x y z
SIZE 4 4 4
TYPE F F F
COUNT 1 1 1
WIDTH 1104
HEIGHT 1
VIEWPOINT 0 0 0 1 0 0 0
POINTS 1104
DATA ascii
-0.12227391 0.0098284176 0.44200003
-0.12161639 0.0098506538 0.44300002
-0.12068222 0.010784821 0.44300002
-0.12227391 0.012624591 0.44200003
-0.12161639 0.012653153 0.44300002
-0.12095463 0.01174544 0.44400004
-0.1227145 0.013710003 0.44700003
-0.12177189 0.012767402 0.44700003
-0.12312523 0.0095005985 0.44850004
-0.12136991 0.01093089 0.44900003
-0.12353808 0.0090573803 0.45000002
-0.12177539 0.010966353 0.45050001
-0.12258916 0.013802017 0.45000002
-0.12191054 0.012881652 0.45100003
-0.12286158 0.015259243 0.45100003
-0.12436166 0.0052967486 0.45300001
-0.12468009 0.006888838 0.45300001
-0.12340641 0.0072072558 0.45300001
-0.12470098 0.0081535 0.45250002
-0.12286068 0.0086351046 0.45275003
-0.1214959 0.011028269 0.45300001
-0.12218086 0.01386336 0.45200002
-0.1214959 0.013416404 0.45300001
-0.12218086 0.015293077 0.45200002
-0.1214959 0.014849284 0.45300001
-0.12245116 0.01675979 0.45300001
-0.12316355 0.0050773425 0.45475003
-0.12278852 0.0065085939 0.45425004
-0.12100579 0.00699523 0.45475003
-0.11867417 0.0072390754 0.45500001
-0.11723496 0.0072390754 0.45500001
-0.12105103 0.0085670771 0.45420003
-0.11890922 0.0087702041 0.45480004
-0.11675522 0.0086782817 0.45500001
-0.11499619 0.0088381935 0.45500001
-0.084932767 0.0088381935 0.45500001
-0.083653472 0.0086782817 0.45500001
-0.12080675 0.010573934 0.45400003
-0.11902225 0.010585404 0.45450002
-0.11675522 0.010597224 0.45500001
-0.11483628 0.010597224 0.45500001
-0.11339708 0.010597224 0.45500001
-0.085092679 0.010117489 0.45500001
-0.12063341 0.013214347 0.45425004
-0.11896798 0.01286909 0.45474997
-0.11675523 0.012995902 0.45500001
-0.11499619 0.012356254 0.45500001
-0.12082731 0.01548355 0.45480004
-0.11867417 0.014914844 0.45500001
-0.11723496 0.014914844 0.45500001
-0.12237689 0.017293969 0.45450002
-0.12107284 0.016833786 0.45500001
-0.1229154 0.0043750382 0.45650002
-0.12085814 0.0053318259 0.45600003
-0.11919582 0.0053435187 0.45700002
-0.11775028 0.0053435187 0.45700002
-0.08883962 0.0053435187 0.45700002
-0.087394089 0.0053435187 0.45700002
-0.084984869 0.0053435187 0.45700002
-0.083057493 0.0053435187 0.45700002
-0.12037735 0.0062934058 0.45600003
-0.11893499 0.0062934058 0.45600003
-0.11685157 0.0066139325 0.45600003
-0.11515149 0.0067776465 0.45625001
-0.11328959 0.0067810966 0.45650002
-0.11109962 0.0066863187 0.45660001
-0.10895722 0.0067810966 0.45650002
-0.10703194 0.0067810966 0.45650005
-0.10489144 0.006875874 0.45640001
-0.10270061 0.0067810966 0.45650002
-0.10077535 0.0067810966 0.45650005
-0.098850079 0.0067810966 0.45650005
-0.096924812 0.0067810966 0.45650005
-0.094999544 0.0067810966 0.45650002
-0.093074277 0.0067810966 0.45650002
-0.09114901 0.0067810966 0.45650005
-0.089223742 0.0067810966 0.45650002
-0.087250926 0.006777646 0.45625001
-0.085279688 0.0067741955 0.45600003
-0.083356529 0.0067741955 0.45600003
-0.081215493 0.0066835582 0.45640007
-0.079144262 0.0072655929 0.45666671
-0.11460788 0.0082165655 0.45600003
-0.11316551 0.0086973552 0.45600003
-0.11124235 0.0086973552 0.45600003
-0.1093192 0.0086973552 0.45600003
-0.10739604 0.0086973552 0.45600003
-0.10499208 0.0086973561 0.45600006
-0.10258813 0.0086973552 0.45600003
-0.10066497 0.0086973552 0.45600003
-0.098741814 0.0086973552 0.45600003
-0.096818656 0.0086973552 0.45600003
-0.094895497 0.0086973552 0.45600003
-0.092972331 0.0086973552 0.45600003
-0.091049179 0.0086973552 0.45600003
-0.089126021 0.0086973552 0.45600003
-0.087202854 0.0086973552 0.45600003
-0.085760482 0.0082165655 0.45600003
-0.082875744 0.0086973552 0.45600003
-0.081433371 0.0086973552 0.45600003
-0.079086497 0.0087037124 0.45633337
-0.077275358 0.0087164287 0.45700002
-0.11268472 0.010620515 0.45600003
-0.11124235 0.010620515 0.45600003
-0.1093192 0.010620515 0.45600003
-0.10739604 0.010620515 0.45600003
-0.10499208 0.010620515 0.45600006
-0.10258813 0.010620515 0.45600003
-0.10066497 0.010620515 0.45600003
-0.098741814 0.010620515 0.45600003
-0.096818656 0.010620515 0.45600003
-0.094895497 0.010620515 0.45600003
-0.092972338 0.010620515 0.45600003
-0.091049179 0.010620515 0.45600003
-0.089126021 0.010620515 0.45600003
-0.087202854 0.010620515 0.45600003
-0.085279688 0.011101305 0.45600003
-0.083356529 0.010620515 0.45600003
-0.081433371 0.010620515 0.45600003
-0.079057962 0.010624222 0.45616671
-0.077275358 0.010643806 0.45700002
-0.11492841 0.013665518 0.45600003
-0.1131655 0.013024464 0.45600006
-0.11124235 0.013024464 0.45600006
-0.1093192 0.013024464 0.45600006
-0.10739604 0.013024464 0.45600006
-0.10499208 0.013024464 0.45600006
-0.10258814 0.013024464 0.45600006
-0.10066497 0.013024464 0.45600006
-0.098741814 0.013024464 0.45600006
-0.096818648 0.013024464 0.45600006
-0.094895504 0.013024464 0.45600006
-0.092972331 0.013024464 0.45600006
-0.091049179 0.013024464 0.45600006
-0.089126013 0.013024464 0.45600006
-0.087202862 0.013024464 0.45600006
-0.085279688 0.013024464 0.45600006
-0.083356529 0.013024464 0.45600006
-0.081433371 0.013024464 0.45600006
-0.079215705 0.012757587 0.45628577
-0.077275358 0.012571182 0.45700002
-0.11893499 0.015909204 0.45600003
-0.11685157 0.015588678 0.45600003
-0.11508867 0.015428415 0.45600003
-0.11328959 0.015445857 0.45650005
-0.11109962 0.015545504 0.45660004
-0.10895722 0.015445857 0.45650005
-0.10703196 0.015445858 0.45650002
-0.10489144 0.015346211 0.45640007
-0.10270062 0.015445857 0.45650005
-0.10077535 0.015445858 0.45650005
-0.098850079 0.015445857 0.45650005
-0.096924812 0.015445857 0.45650005
-0.095103599 0.015462248 0.45700002
-0.093176223 0.015462248 0.45700002
-0.09124884 0.015462248 0.45700002
-0.089223742 0.015445858 0.45650002
-0.087298475 0.015445858 0.45650002
-0.085102797 0.015545505 0.45660004
-0.082791641 0.015352766 0.45660004
-0.080648273 0.015462248 0.45700002
-0.078720897 0.014980405 0.45700002
-0.077275358 0.01449856 0.45700002
-0.12230051 0.017832365 0.45600003
-0.12069788 0.017511839 0.45600003
-0.1190654 0.017371126 0.45650002
-0.11720402 0.017380375 0.45675004
-0.11550166 0.017229011 0.45700002
-0.11341368 0.016907781 0.45700002
-0.11100446 0.016907781 0.45700002
-0.10859524 0.016907781 0.45700002
-0.10666786 0.016907781 0.45700002
-0.10474049 0.016907781 0.45700002
-0.10281311 0.016907781 0.45700002
-0.10088573 0.016907781 0.45700002
-0.098958351 0.016907781 0.45700002
-0.097030975 0.016907781 0.45700002
-0.087394089 0.016907781 0.45700002
-0.084984869 0.016907781 0.45700002
-0.082575649 0.016907781 0.45700002
-0.081130117 0.016907781 0.45700002
-0.12291594 0.019296395 0.45650005
-0.12112319 0.018835157 0.45700002
-0.11967766 0.018835157 0.45700002
-0.12319313 0.0034335838 0.45933336
-0.1209483 0.003438567 0.46000001
-0.11949328 0.003438567 0.46000001
-0.092332862 0.003438567 0.46000001
-0.090877846 0.003438567 0.46000001
-0.088937804 0.003438567 0.46000001
-0.12138823 0.0043894141 0.45800003
-0.11914621 0.0043958034 0.45866668
-0.11674985 0.0048795007 0.45875004
-0.11487792 0.0048818965 0.45900002
-0.11294212 0.0048818965 0.45900002
-0.1110063 0.0048818965 0.45900002
-0.10907049 0.0048818965 0.45900002
-0.10713468 0.0048818965 0.45900002
-0.10508427 0.0048771044 0.45850003
-0.10315058 0.0048771044 0.45850003
-0.10121686 0.0048771044 0.45850003
-0.099100217 0.0047853165 0.45900002
-0.09697061 0.0048818965 0.45900002
-0.094983563 0.0048795003 0.45875004
-0.092998102 0.0048771044 0.45850003
-0.091064394 0.0048771044 0.45850003
-0.089162916 0.0047177356 0.45866668
-0.086808652 0.0043989979 0.45900002
-0.084872842 0.0043989979 0.45900002
-0.082715839 0.0047177356 0.45866668
-0.080956839 0.0048795007 0.45875001
-0.079108208 0.0048848195 0.45925003
-0.077782638 0.0053785965 0.46000001
-0.078893155 0.0063210088 0.45800003
-0.077129066 0.0068182359 0.45900002
-0.075464316 0.0069899838 0.4596667
-0.07647866 0.0087355021 0.45800003
-0.075070649 0.008740006 0.45825002
-0.07647866 0.010667097 0.45800003
-0.075029954 0.010667097 0.45800003
-0.07647866 0.012598692 0.45800003
-0.075111344 0.012612445 0.45850003
-0.076720111 0.015254634 0.45800003
-0.075512856 0.015013183 0.45800003
-0.11462764 0.017910574 0.45800003
-0.11269605 0.017910574 0.45800003
-0.11076446 0.017910574 0.45800003
-0.10883286 0.017910574 0.45800003
-0.10690127 0.017910574 0.45800003
-0.10496967 0.017910574 0.45800003
-0.10303809 0.017910574 0.45800003
-0.10110649 0.017910574 0.45800003
-0.099174887 0.017910574 0.45800003
-0.097243294 0.017910574 0.45800003
-0.095311709 0.017427677 0.45800003
-0.093380108 0.017427675 0.45800003
-0.091448516 0.017427675 0.45800003
-0.089227185 0.017524255 0.45800003
-0.086619526 0.017910574 0.45800003
-0.084687933 0.017910574 0.45800003
-0.082756341 0.017910574 0.45800003
-0.080663785 0.017588641 0.45800003
-0.078893155 0.017427675 0.45800003
-0.076961562 0.017427675 0.45800003
-0.075190924 0.017588641 0.45800003
-0.12138823 0.019842168 0.45800003
-0.11878058 0.01945585 0.45800003
-0.11668649 0.019380933 0.45850003
-0.11475278 0.019380933 0.45850003
-0.11294211 0.019401541 0.45900002
-0.1110063 0.019401541 0.45900002
-0.1091893 0.019423202 0.45950001
-0.10725138 0.019423202 0.45950001
-0.10519888 0.019401541 0.45900002
-0.10320708 0.019391237 0.45875004
-0.10121686 0.019380933 0.45850003
-0.099391431 0.019401539 0.45900002
-0.096971676 0.019401541 0.45900005
-0.094551906 0.019401539 0.45900002
-0.092616096 0.019401539 0.45900002
-0.090680271 0.019401539 0.45900002
-0.088744469 0.019401541 0.45900002
-0.086714089 0.019380933 0.45850003
-0.084780388 0.019380933 0.45850003
-0.082846686 0.019380933 0.45850003
-0.080912985 0.019380933 0.45850003
-0.078979284 0.019380933 0.45850003
-0.077045575 0.019380933 0.45850003
-0.075111873 0.019380933 0.45850003
-0.12297051 0.021314636 0.45850003
-0.12086972 0.021222388 0.45860001
-0.1188789 0.021361122 0.45950001
-0.11694098 0.021361122 0.45950001
-0.1151282 0.021383837 0.46000001
-0.11334985 0.02122217 0.46000001
-0.11124815 0.02089883 0.46000001
-0.10930812 0.02089883 0.46000001
-0.10736809 0.02089883 0.46000001
-0.10542806 0.02089883 0.46000001
-0.10300303 0.02089883 0.46000001
-0.10057798 0.02089883 0.46000001
-0.098637953 0.02089883 0.46000001
-0.096697927 0.021383837 0.46000001
-0.0947579 0.021383837 0.46000001
-0.092817873 0.021383839 0.46000001
-0.090877846 0.021383839 0.46000001
-0.088937812 0.021383839 0.46000001
-0.086997777 0.021383839 0.46000001
-0.085011788 0.02137248 0.45975
-0.083027378 0.021361122 0.45950001
-0.081089452 0.021361122 0.45950001
-0.079151541 0.021361122 0.45950001
-0.077171862 0.021349238 0.45925
-0.075193785 0.021337353 0.45900002
-0.12227027 0.023299042 0.45950001
-0.12094829 0.023323867 0.46000001
-0.11900827 0.022838861 0.46000001
-0.11755324 0.022838861 0.46000001
-0.083117723 0.022838861 0.46000001
-0.081177697 0.022838861 0.46000001
-0.07923767 0.022838861 0.46000001
-0.077297628 0.023323867 0.46000001
-0.075316913 0.023311455 0.45975003
-0.12240332 0.024778889 0.46000001
-0.076812625 0.024778889 0.46000001
-0.075195938 0.025102228 0.46000001
-0.11878092 0.0034460423 0.46100003
-0.11700493 0.0034510258 0.46166667
-0.11465453 0.0034535173 0.46200001
-0.11319318 0.0034535173 0.46200001
-0.10880913 0.0034535173 0.46200001
-0.10686067 0.0034535173 0.46200001
-0.10468513 0.0034460423 0.46100003
-0.10274088 0.0034460423 0.46100003
-0.10079663 0.0034460423 0.46100003
-0.098852389 0.0034460423 0.46100003
-0.096908137 0.0034460423 0.46100003
-0.094963893 0.0034460423 0.46100003
-0.09350571 0.0034460423 0.46100003
-0.087186903 0.0034460423 0.46100003
-0.085242659 0.0034460423 0.46100003
-0.082931407 0.0034510258 0.46166667
-0.0805564 0.0034535173 0.46200001
-0.078607932 0.0034535173 0.46200001
-0.077062577 0.0049095461 0.46149999
-0.075198121 0.0063762134 0.46200001
-0.11294818 0.021916388 0.46100003
-0.11100394 0.021916388 0.46100006
-0.10857362 0.021916388 0.46100003
-0.10662937 0.021916388 0.46100003
-0.10468513 0.021916388 0.46100003
-0.10274088 0.021916388 0.46100003
-0.10079663 0.021916388 0.46100003
-0.098852389 0.021916388 0.46100003
-0.11926698 0.023860633 0.46100003
-0.11716071 0.023536593 0.46100006
-0.11537848 0.023374572 0.46100003
-0.11319119 0.023482136 0.46120006
-0.1109054 0.023298064 0.46140003
-0.10869137 0.023400452 0.46149999
-0.10674502 0.023400452 0.46149999
-0.10479866 0.02340045 0.46150002
-0.10285231 0.023400452 0.46149999
-0.10090595 0.02340045 0.46150002
-0.098959602 0.02340045 0.46150002
-0.097013243 0.02340045 0.46150002
-0.09506689 0.023400452 0.46149999
-0.09312053 0.023400452 0.46149999
-0.091125056 0.023387512 0.46125001
-0.089131154 0.023374572 0.46100003
-0.08718691 0.023374572 0.46100003
-0.085242659 0.023374572 0.46100003
-0.083298415 0.023860633 0.46100003
-0.081354171 0.023860633 0.46100003
-0.07940992 0.023860633 0.46100003
-0.12266941 0.025804881 0.46100003
-0.12102392 0.025438422 0.4614
-0.11890921 0.025346806 0.46149999
-0.11684415 0.025265545 0.46180001
-0.1148169 0.02521137 0.46200001
-0.11270607 0.024886625 0.46200001
-0.1107576 0.024886625 0.46200001
-0.10880913 0.024886625 0.46200001
-0.10686067 0.024886625 0.46200001
-0.10491221 0.024886625 0.46200001
-0.10296375 0.024886625 0.46200001
-0.10101527 0.024886625 0.46200001
-0.099066809 0.024886625 0.46200001
-0.097118348 0.024886625 0.46200001
-0.095169887 0.024886625 0.46200001
-0.093221419 0.024886625 0.46200001
-0.09127295 0.024886625 0.46200001
-0.089324489 0.024886625 0.46200001
-0.087376028 0.024886625 0.46200001
-0.085427567 0.02537374 0.46200001
-0.083150901 0.02546039 0.46180001
-0.080955282 0.025346806 0.46149999
-0.079247907 0.0251568 0.46100006
-0.077222638 0.025561851 0.46100003
-0.1229355 0.027322203 0.46200001
-0.12163653 0.027159831 0.46200001
-0.0805564 0.026835088 0.46200001
-0.078607932 0.026835088 0.46200001
-0.076576509 0.027293161 0.46150002
-0.075035363 0.027263064 0.46100003
-0.1229355 0.028783552 0.46200001
-0.11880806 0.0024846515 0.46300003
-0.11685538 0.0024846515 0.46300003
-0.11246184 0.0034609924 0.46300003
-0.11099733 0.0034609924 0.46300003
-0.10465112 0.0024846515 0.46300003
-0.10318661 0.0024846515 0.46300003
-0.10123392 0.0024846515 0.46300003
-0.099281244 0.0024846515 0.46300003
-0.097328559 0.0024846515 0.46300003
-0.095375881 0.0024846515 0.46300003
-0.093423195 0.0024846515 0.46300003
-0.09098234 0.0024846517 0.46300003
-0.088541493 0.0024846515 0.46300003
-0.087076984 0.0024846515 0.46300003
-0.08414796 0.0024846515 0.46300003
-0.077313572 0.0034609924 0.46300003
-0.076337233 0.0044373334 0.46300003
-0.075360894 0.0054136743 0.46300003
-0.11441453 0.025916832 0.46300003
-0.11295001 0.025916832 0.46300003
-0.11099733 0.025916832 0.46300003
-0.10904465 0.025916832 0.46300003
-0.10709197 0.025916832 0.46300003
-0.10513929 0.025916832 0.46300003
-0.10318661 0.025916832 0.46300003
-0.10123392 0.025916832 0.46300003
-0.099281244 0.025916832 0.46300003
-0.097328559 0.025916832 0.46300003
-0.095375881 0.025916832 0.46300003
-0.093423195 0.025916832 0.46300003
-0.09098234 0.025916833 0.46300003
-0.088541493 0.025916832 0.46300003
-0.087076984 0.025916832 0.46300003
-0.12059802 0.027544066 0.46300003
-0.11897078 0.027218621 0.46300003
-0.11685538 0.026893172 0.46300003
-0.1149027 0.026893172 0.46300003
-0.11295001 0.026893172 0.46300003
-0.11099733 0.026893172 0.46300003
-0.10904465 0.026893172 0.46300003
-0.10709197 0.026893172 0.46300003
-0.10513929 0.026893172 0.46300003
-0.10318661 0.026893172 0.46300003
-0.10123392 0.026893172 0.46300003
-0.099281244 0.026893172 0.46300003
-0.097328559 0.026893172 0.46300003
-0.095375881 0.026893172 0.46300003
-0.093423195 0.026893172 0.46300003
-0.090982348 0.026893172 0.46300003
-0.088541493 0.026893172 0.46300003
-0.086588815 0.026893172 0.46300003
-0.084636129 0.026893172 0.46300003
-0.082683444 0.027381342 0.46300003
-0.080730766 0.027869515 0.46300003
-0.078778088 0.027869515 0.46300003
-0.1225507 0.02949675 0.46300003
-0.12124891 0.028845856 0.46300003
-0.078289911 0.028845856 0.46300003
-0.076825403 0.028845856 0.46300003
-0.075360894 0.028845856 0.46300003
-0.12287614 0.031123986 0.46300003
-0.11932127 0.0015148262 0.46500003
-0.11736014 0.0015148262 0.46500003
-0.11539904 0.0015148262 0.46500003
-0.10608374 0.0015148262 0.46500003
-0.10461289 0.0015148262 0.46500003
-0.10292025 0.0015115684 0.46400002
-0.10145257 0.0015115684 0.46400002
-0.099147998 0.0015137404 0.46466669
-0.096768431 0.0015148262 0.46500003
-0.094807312 0.0015148262 0.46500003
-0.0928462 0.0015148262 0.46500003
-0.091375358 0.0015148262 0.46500003
-0.08304061 0.0015148262 0.46500003
-0.081569776 0.0015148262 0.46500003
-0.12324351 0.0024953845 0.46500003
-0.12102157 0.002490018 0.46400002
-0.11515087 0.002490018 0.46400002
-0.11331542 0.0024927012 0.46450001
-0.11098653 0.0024953845 0.46500003
-0.10879094 0.002490018 0.46400002
-0.10732327 0.002490018 0.46400002
-0.1058556 0.002490018 0.46400002
-0.086286604 0.002490018 0.46400002
-0.085308157 0.002490018 0.46400002
-0.082862034 0.002490018 0.46400002
-0.080905132 0.002490018 0.46400002
-0.07894823 0.002490018 0.46400002
-0.076828264 0.0028161681 0.46400005
-0.075155452 0.0029843219 0.46475002
-0.074978471 0.0047801598 0.46466669
-0.11857544 0.027929708 0.46400002
-0.11710776 0.027929708 0.46400002
-0.11515087 0.027929708 0.46400002
-0.11319397 0.027929708 0.46400002
-0.11123706 0.027929708 0.46400002
-0.10928017 0.027929708 0.46400002
-0.10732327 0.027929708 0.46400002
-0.10536636 0.027929708 0.46400002
-0.10340947 0.027929708 0.46400002
-0.10145257 0.027929708 0.46400002
-0.099006459 0.027929708 0.46400005
-0.096560329 0.027929708 0.46400002
-0.094603419 0.027929708 0.46400002
-0.092646524 0.027929708 0.46400002
-0.0908527 0.027603557 0.46400005
-0.088732734 0.027929708 0.46400002
-0.086775824 0.027929708 0.46400002
-0.084818929 0.027929708 0.46400002
-0.12085849 0.029560458 0.46400005
-0.11906466 0.029397383 0.46400002
-0.11723395 0.029429588 0.46450001
-0.11527495 0.029429588 0.46450004
-0.11331595 0.029429587 0.46450001
-0.11108674 0.029533872 0.46460006
-0.10890765 0.029429588 0.46450001
-0.10694864 0.029429588 0.46450004
-0.10498963 0.029429587 0.46450001
-0.10303062 0.029429588 0.46450004
-0.10107162 0.029429587 0.46450001
-0.098895691 0.029325301 0.46440002
-0.096716136 0.029445162 0.46475002
-0.094807312 0.029460737 0.46500003
-0.0928462 0.029460739 0.46500003
-0.09088508 0.029460737 0.46500003
-0.088923961 0.029460737 0.46500003
-0.086869337 0.029429588 0.46450001
-0.084910333 0.029429587 0.46450001
-0.082951322 0.029429587 0.46450001
-0.080948986 0.029413484 0.46425
-0.079111308 0.029560458 0.46400005
-0.076991335 0.029886607 0.46400002
-0.075196147 0.029951017 0.46500003
-0.12248924 0.031843506 0.46400002
-0.12108651 0.031371437 0.46425
-0.11932127 0.031421855 0.46500003
-0.11736014 0.030931575 0.46500003
-0.11588932 0.030931575 0.46500003
-0.10804485 0.030931575 0.46500003
-0.10657401 0.030931575 0.46500003
-0.10461289 0.030931575 0.46500003
-0.10265177 0.030931575 0.46500003
-0.085001729 0.030931575 0.46500003
-0.08304061 0.030931575 0.46500003
-0.081079498 0.030931575 0.46500003
-0.079118378 0.030931575 0.46500003
-0.077157259 0.030931575 0.46500003
-0.12308009 0.033219546 0.46500003
-0.12144582 0.033219546 0.46500003
-0.12131165 0.0015213415 0.46700001
-0.11884971 0.00053656579 0.46700001
-0.11688016 0.00053656579 0.46700001
-0.11466481 0.00086373853 0.4666667
-0.1126992 0.0015180839 0.46600002
-0.11073387 0.0015180839 0.46600002
-0.10876854 0.0015180839 0.46600002
-0.10711978 0.00086373853 0.4666667
-0.10506285 0.00053656579 0.46700001
-0.10287254 0.00053541682 0.46600002
-0.10101496 0.00053599128 0.46650001
-0.099154189 0.00053656579 0.46700001
-0.097184643 0.00053656579 0.46700001
-0.095707476 0.00053656579 0.46700001
-0.090589195 0.0015180839 0.46600002
-0.089115202 0.0015180839 0.46600002
-0.087149858 0.0015180839 0.46600002
-0.085081339 0.0011909113 0.46633336
-0.083397776 0.00053656579 0.46700001
-0.081206337 0.00086373853 0.4666667
-0.079509377 0.0011909113 0.46633336
-0.076886117 0.0015191697 0.46633336
-0.12498254 0.0025007508 0.46600002
-0.11810388 0.031980764 0.46600002
-0.11662988 0.031980764 0.46600002
-0.11466455 0.031489432 0.46600002
-0.1126992 0.031489432 0.46600002
-0.11073387 0.031489432 0.46600002
-0.10893232 0.031653211 0.46600002
-0.10680321 0.031980764 0.46600002
-0.10483788 0.031980764 0.46600002
-0.10287254 0.031980764 0.46600002
-0.10090721 0.031489432 0.46600002
-0.09894187 0.031489432 0.46600002
-0.096976534 0.030998096 0.46600002
-0.095011204 0.030998096 0.46600002
-0.093045861 0.030998096 0.46600002
-0.090916753 0.031325653 0.46600002
-0.089115202 0.031489432 0.46600002
-0.087149858 0.031489432 0.46600002
-0.085184529 0.031980764 0.46600002
-0.0832192 0.031980764 0.46600002
-0.081253856 0.031980764 0.46600002
-0.079288527 0.031980764 0.46600002
-0.077323198 0.031980764 0.46600002
-0.07552164 0.031325653 0.46600002
-0.12039676 0.03361854 0.46600002
-0.11859521 0.032963429 0.46600002
-0.11675449 0.0329988 0.46650001
-0.1149106 0.033034168 0.46700001
-0.11294106 0.033034168 0.46700001
-0.1109715 0.033034168 0.46700001
-0.10900195 0.033034168 0.46700001
-0.1070324 0.033034168 0.46700001
-0.10506285 0.033034168 0.46700001
-0.1030933 0.033034168 0.46700001
-0.10112375 0.033034168 0.46700001
-0.099154189 0.033034168 0.46700001
-0.097184636 0.032541782 0.46700001
-0.095215082 0.032541778 0.46700001
-0.093245536 0.032541782 0.46700001
-0.091440126 0.032705911 0.46700001
-0.089306429 0.033034168 0.46700001
-0.087336883 0.033034168 0.46700001
-0.085367329 0.033034168 0.46700001
-0.0832192 0.032963429 0.46600002
-0.081253856 0.032963429 0.46600002
-0.079288527 0.032963429 0.46600002
-0.076886117 0.03298701 0.46633336
-0.075027183 0.032541782 0.46700001
-0.12272335 0.035477363 0.46675003
-0.12081926 0.035496105 0.46700001
-0.1189482 0.034806766 0.46700001
-0.11704429 0.034347203 0.46700001
-0.1149106 0.034018941 0.46700001
-0.11294106 0.034018941 0.46700001
-0.1109715 0.034018941 0.46700001
-0.10900195 0.034018941 0.46700001
-0.1070324 0.034018941 0.46700001
-0.10506285 0.034018941 0.46700001
-0.10358568 0.034018941 0.46700001
-0.088814043 0.034018941 0.46700001
-0.087336883 0.034018941 0.46700001
-0.085367329 0.034018941 0.46700001
-0.083233647 0.034347203 0.46700001
-0.08142823 0.034018941 0.46700001
-0.079458676 0.034018941 0.46700001
-0.076996736 0.034018941 0.46700001
-0.1193587 -0.00045012956 0.46900001
-0.11738072 -0.00045012956 0.46900001
-0.11540273 -0.00045012956 0.46900001
-0.11342475 -0.00045012956 0.46900001
-0.11144676 -0.00045012956 0.46900001
-0.10946877 -0.00045012956 0.46900001
-0.10699629 -0.00045012956 0.46900004
-0.1050183 -0.00045012956 0.46900001
-0.10296638 -0.00044980965 0.46866667
-0.10056783 -0.00045012956 0.46900001
-0.098589845 -0.00045012956 0.46900001
-0.084743939 -0.00045012956 0.46900001
-0.082765952 -0.00045012956 0.46900001
-0.080787964 -0.00045012956 0.46900001
-0.12479816 0.0015278569 0.46900001
-0.1225583 0.0015245993 0.46800002
-0.12058453 0.00053771475 0.46800002
-0.1131829 0.00053771475 0.46800002
-0.11120912 0.00053771475 0.46800002
-0.10923536 0.00053771475 0.46800002
-0.09492553 0.00053771475 0.46800002
-0.093445212 0.00053771475 0.46800002
-0.091471434 0.00053771475 0.46800002
-0.089004219 0.0005377148 0.46800002
-0.086537018 0.00053771475 0.46800002
-0.078641936 0.00053771475 0.46800002
-0.076749548 0.0005382892 0.46850002
-0.075187847 0.0015245993 0.46800002
-0.11663699 0.035078671 0.46800002
-0.11515667 0.035078671 0.46800002
-0.1131829 0.035078671 0.46800002
-0.11120912 0.035078671 0.46800002
-0.10923536 0.035078671 0.46800002
-0.1072616 0.035078671 0.46800002
-0.10528782 0.035078671 0.46800002
-0.10314958 0.034749713 0.46800002
-0.10134029 0.03458523 0.46800002
-0.099112287 0.034698911 0.46820003
-0.097002305 0.034622706 0.46850002
-0.095254496 0.034420751 0.46800002
-0.093445212 0.03458523 0.46800002
-0.091471434 0.03458523 0.46800002
-0.089250952 0.034831949 0.46800002
-0.086537018 0.035078671 0.46800002
-0.08456324 0.035078671 0.46800002
-0.082096033 0.035078671 0.46800002
-0.080615714 0.035078671 0.46800002
-0.078641936 0.035078671 0.46800002
-0.076668173 0.035078671 0.46800002
-0.075187847 0.03458523 0.46800002
-0.1225583 0.037052441 0.46800002
-0.12107797 0.037052441 0.46800002
-0.11893973 0.03672348 0.46800002
-0.11719275 0.036578793 0.46825004
-0.1152797 0.036598586 0.46850002
-0.11342475 0.036637112 0.46900001
-0.11144677 0.036637112 0.46900001
-0.10946877 0.036637112 0.46900001
-0.10699629 0.036637112 0.46900004
-0.10452381 0.036637112 0.46900001
-0.10271066 0.036472283 0.46900004
-0.10056783 0.036142617 0.46900001
-0.098589845 0.036142617 0.46900001
-0.096611857 0.036142617 0.46900001
-0.09463387 0.036142617 0.46900001
-0.092491053 0.036472283 0.46900004
-0.090677902 0.036637112 0.46900001
-0.088699907 0.036637112 0.46900001
-0.086629465 0.036598582 0.46850002
-0.084653594 0.036598586 0.46850002
-0.082677715 0.036598586 0.46850002
-0.080701835 0.036598586 0.46850002
-0.078725956 0.036598586 0.46850002
-0.076750085 0.036598586 0.46850002
-0.075268179 0.036598586 0.46850002
-0.12282018 0.038120605 0.46900001
-0.12127227 0.038594782 0.46875
-0.11929481 0.038594782 0.46875
-0.11754555 0.038450271 0.46900004
-0.11540273 0.038120605 0.46900001
-0.084743939 0.038120605 0.46900001
-0.082765952 0.038120605 0.46900001
-0.081282459 0.038120605 0.46900001
-0.076831996 0.038120605 0.46900001
-0.075348504 0.038120605 0.46900001
-0.12073207 -0.00094817457 0.47050002
-0.11887448 -0.0014452598 0.47100002
-0.11688805 -0.0014452598 0.47100002
-0.11490163 -0.0014452598 0.47100002
-0.1129152 -0.0014452598 0.47100002
-0.1109288 -0.0014452598 0.47100002
-0.10894237 -0.0014452598 0.47100002
-0.10695595 -0.0014452598 0.47100002
-0.10496952 -0.0014452598 0.47100002
-0.1029831 -0.0014452598 0.47100002
-0.096817851 -0.00045108932 0.47000003
-0.094835654 -0.00045108932 0.47000003
-0.092853442 -0.00045108932 0.47000003
-0.090871245 -0.00045108932 0.47000003
-0.088889033 -0.00045108932 0.47000003
-0.086906835 -0.00045108932 0.47000003
-0.085105315 -0.0014452598 0.47100002
-0.082942426 -0.0014421913 0.47000003
-0.081045821 -0.0014437255 0.47050002
-0.078978017 -0.00045108932 0.47000003
-0.077656232 -0.00045204908 0.47100002
-0.12407316 0.0015311146 0.47000003
-0.12209095 0.00054001267 0.47000003
-0.12407316 0.037210785 0.47000003
-0.10226891 0.037210785 0.47000003
-0.10078226 0.037210785 0.47000003
-0.098800056 0.037210785 0.47000003
-0.096817851 0.037210785 0.47000003
-0.094835654 0.037210785 0.47000003
-0.093348995 0.037210785 0.47000003
-0.12308206 0.039192989 0.47000003
-0.11663989 0.039192989 0.47000003
-0.11449251 0.038862623 0.47000003
-0.11267548 0.038697436 0.47000003
-0.11069328 0.038697436 0.47000003
-0.10876863 0.038718283 0.47025001
-0.10684241 0.03873913 0.47049999
-0.1048581 0.03873913 0.47049999
-0.10287378 0.03873913 0.47050002
-0.10088947 0.03873913 0.47049999
-0.098905161 0.03873913 0.47050002
-0.096920848 0.03873913 0.47049999
-0.094936535 0.03873913 0.47050002
-0.092952222 0.03873913 0.47050002
-0.090967916 0.03873913 0.47049999
-0.088983595 0.03873913 0.47049999
-0.086906828 0.038697436 0.47000003
-0.084924631 0.039192989 0.47000003
-0.082942426 0.039192989 0.47000003
-0.080795042 0.038862623 0.47000003
-0.078978017 0.038697436 0.47000003
-0.076995812 0.039192989 0.47000003
-0.075509161 0.039192989 0.47000003
-0.12235072 0.040269587 0.47100002
-0.1207326 0.040723443 0.47050002
-0.11874828 0.040723443 0.47050002
-0.11676398 0.040723443 0.47049999
-0.11484039 0.040744819 0.47075003
-0.11291521 0.040766194 0.47100002
-0.1109288 0.040766194 0.47100002
-0.10894237 0.040269587 0.47100002
-0.10695595 0.040269587 0.47100002
-0.10496952 0.040269587 0.47100002
-0.1029831 0.040269587 0.47100002
-0.10099669 0.040269587 0.47100002
-0.099010259 0.040269587 0.47100002
-0.097023845 0.040269587 0.47100002
-0.095037416 0.040269587 0.47100002
-0.093051001 0.040269587 0.47100002
-0.091064572 0.040269587 0.47100002
-0.089078158 0.040269587 0.47100002
-0.087091729 0.040269587 0.47100002
-0.085105315 0.040269587 0.47100002
-0.083118893 0.040269587 0.47100002
-0.081132472 0.040269587 0.47100002
-0.07914605 0.040269587 0.47100002
-0.077159628 0.040269587 0.47100002
-0.11887448 0.042256009 0.47100002
-0.11688805 0.042256009 0.47100002
-0.11937925 -0.0024488247 0.47300002
-0.11738439 -0.0024488247 0.47300002
-0.11514558 -0.0024436477 0.47200003
-0.11339469 -0.0024488247 0.47300002
-0.11139983 -0.0024488247 0.47300002
-0.10940497 -0.0024488247 0.47300002
-0.10741012 -0.0024488247 0.47300002
-0.10541525 -0.0024488247 0.47300002
-0.10391912 -0.0024488247 0.47300002
-0.097435832 -0.0024488247 0.47300002
-0.095440976 -0.0024488247 0.47300002
-0.093446121 -0.0024488247 0.47300002
-0.091451265 -0.0024488247 0.47300002
-0.086962841 -0.0024488247 0.47300002
-0.085376874 -0.0024462361 0.47250003
-0.08329536 -0.0024436477 0.47200003
-0.081304729 -0.0024436477 0.47200003
-0.079482123 -0.0024488247 0.47300002
-0.12261048 -0.00045300883 0.47200003
-0.12187282 -0.0014513967 0.47300002
-0.10121112 -0.0014483283 0.47200003
-0.099220477 -0.0014483283 0.47200003
-0.097229838 -0.0014483283 0.47200003
-0.0952392 -0.0014483283 0.47200003
-0.093248561 -0.0014483283 0.47200003
-0.091257922 -0.0014483283 0.47200003
-0.089267284 -0.0014483283 0.47200003
-0.087276645 -0.0014483283 0.47200003
-0.079314083 -0.0014483283 0.47200003
-0.077487275 -0.00095268269 0.47300002
-0.12586254 0.00054345955 0.47300002
-0.1236058 0.00054231059 0.47200003
-0.075830467 0.00054231059 0.47200003
-0.12261048 0.041350406 0.47200003
-0.10917367 0.041350406 0.47200003
-0.10718303 0.041350406 0.47200003
-0.10519239 0.041350406 0.47200003
-0.10320176 0.041350406 0.47200003
-0.10121112 0.041350406 0.47200003
-0.099220477 0.041350406 0.47200003
-0.097229838 0.041350406 0.47200003
-0.0952392 0.041350406 0.47200003
-0.093248561 0.041350406 0.47200003
-0.091257922 0.041350406 0.47200003
-0.089267284 0.041350406 0.47200003
-0.087276645 0.041350406 0.47200003
-0.085286006 0.041350406 0.47200003
-0.08329536 0.041350406 0.47200003
-0.081304729 0.041350406 0.47200003
-0.075910799 0.04089655 0.47250003
-0.11662327 -0.004471865 0.47600001
-0.11511765 -0.004471865 0.47600001
-0.11361202 -0.004471865 0.47600001
-0.096548192 -0.004471865 0.47600001
-0.095042557 -0.004471865 0.47600001
-0.09303505 -0.004471865 0.47600001
-0.091027543 -0.004471865 0.47600001
-0.086510651 -0.004471865 0.47600001
-0.084916249 -0.0044671679 0.47550002
-0.082823142 -0.0044624708 0.47500002
-0.080819853 -0.0044624708 0.47500002
-0.078982487 -0.004471865 0.47600001
-0.1226458 -0.0024643566 0.47600001
-0.12088463 -0.0029610565 0.47500002
-0.11888239 -0.0034608252 0.47500002
-0.1167566 -0.0034571821 0.47450003
-0.11463396 -0.003453539 0.47400004
-0.11287251 -0.0034608252 0.47500002
-0.11086921 -0.0034608252 0.47500002
-0.10886593 -0.0034608252 0.47500002
-0.10686263 -0.0034608252 0.47500002
-0.10485934 -0.0034608252 0.47500002
-0.10285605 -0.0029610565 0.47500002
-0.10085277 -0.0029610565 0.47500002
-0.099016413 -0.0031276462 0.47500002
-0.096846178 -0.0034608252 0.47500002
-0.094842888 -0.0034608252 0.47500002
-0.092839599 -0.0034608252 0.47500002
-0.090605974 -0.0031252175 0.47466668
-0.088739507 -0.0029574137 0.47450003
-0.086829722 -0.0034608252 0.47500002
-0.084647849 -0.003453539 0.47400004
-0.082648776 -0.003453539 0.47400004
-0.080649704 -0.003453539 0.47400004
-0.078538999 -0.0031227889 0.47433338
-0.077395476 -0.0029636452 0.47550002
-0.12455003 -0.00078913022 0.47433338
-0.12338979 -0.0014575338 0.47500002
-0.076592073 -0.001123332 0.47466668
-0.12512909 0.00054460851 0.47400004
-0.075310804 0.00054575747 0.47500002
-0.12089173 -0.0044812597 0.47700003
-0.11938295 -0.0044812597 0.47700003
-0.11787415 -0.0044812597 0.47700003
-0.11284483 -0.0044812597 0.47700003
-0.11133604 -0.0044812597 0.47700003
-0.10932431 -0.0044812597 0.47700003
-0.10731259 -0.0044812597 0.47700003
-0.1058038 -0.0044812597 0.47700003
-0.098762751 -0.0044812597 0.47700003
-0.097756885 -0.0044812597 0.47700003
-0.089207053 -0.0044812597 0.47700003
-0.087698258 -0.0044812597 0.47700003
-0.085183606 -0.005487123 0.47700003
-0.083171874 -0.005487123 0.47700003
-0.081160143 -0.005487123 0.47700003
-0.079148427 -0.005487123 0.47700003
-0.077639624 -0.0044812597 0.47700003
-0.12491519 -0.0024695336 0.47700003
-0.12357404 -0.0031401091 0.47700006
-0.1218976 -0.0034753967 0.47700003
-0.076633766 -0.002972465 0.47700003
-0.075627901 -0.00045780768 0.47700003
-0.094631493 -0.0065202103 0.47900003
-0.086045809 -0.0065202103 0.47900003
-0.084530681 -0.0065202103 0.47900003
-0.082842253 -0.0065065986 0.47800002
-0.081330299 -0.0065065986 0.47800002
-0.079480283 -0.0065202103 0.47900003
-0.12442887 -0.0045000492 0.47900003
-0.12278545 -0.0050003924 0.47850004
-0.12064119 -0.0054986267 0.47800002
-0.11862525 -0.0054986267 0.47800002
-0.11660931 -0.0054986267 0.47800002
-0.1147127 -0.0055043781 0.47850001
-0.11281294 -0.00551013 0.47900003
-0.11079279 -0.00551013 0.47900003
-0.10877262 -0.00551013 0.47900003
-0.10675246 -0.00551013 0.47900003
-0.10451365 -0.0044906549 0.47800002
-0.10300169 -0.0044906549 0.47800002
-0.10148973 -0.0044906549 0.47800002
-0.099107131 -0.0051703053 0.47866672
-0.096953861 -0.0054986267 0.47800002
-0.0954419 -0.0054986267 0.47800002
-0.093425959 -0.0054986267 0.47800002
-0.091410011 -0.0054986267 0.47800002
-0.08939407 -0.0054986267 0.47800002
-0.087378129 -0.0054986267 0.47800002
-0.077460125 -0.0050050896 0.47900003
-0.12517707 -0.0034826829 0.47800002
-0.075865723 -0.0029823398 0.47850001
-0.075360686 -0.00096323318 0.47850001
-0.1229198 -0.0065474343 0.48100004
-0.12089121 -0.0065474343 0.48100004
-0.1192462 -0.0065406282 0.48050004
-0.11709721 -0.0065338225 0.48000002
-0.1153218 -0.0068764593 0.48033339
-0.11304846 -0.0065338225 0.48000002
-0.11113919 -0.0065406282 0.48050004
-0.10922676 -0.0065474343 0.48100004
-0.10719818 -0.0065474343 0.48100004
-0.10567673 -0.0065474343 0.48100004
-0.09857665 -0.0065474343 0.48100004
-0.096853428 -0.0065338225 0.48000002
-0.09280467 -0.0065338225 0.48000002
-0.090780295 -0.0065338225 0.48000002
-0.088755913 -0.0065338225 0.48000002
-0.087237634 -0.0065338225 0.48000002
-0.08488363 -0.0075617325 0.48100004
-0.082769431 -0.0075538722 0.48050004
-0.08074189 -0.0075538722 0.48050004
-0.078797832 -0.0070545832 0.48100004
-0.10495094 -0.0055216332 0.48000002
-0.10292657 -0.0055216332 0.48000002
-0.10090218 -0.0055216332 0.48000002
-0.07676924 -0.0050259875 0.48100004
-0.075247794 -0.0035045405 0.48100004
-0.11833832 -0.0086116893 0.48300001
-0.11675036 -0.0091164894 0.48275003
-0.1146547 -0.0091120321 0.48250002
-0.1128281 -0.0092847571 0.4826667
-0.11109306 -0.0091120331 0.48250002
-0.10887714 -0.0090119643 0.48260003
-0.1066254 -0.0086116893 0.48300001
-0.10509762 -0.0086116893 0.48300001
-0.084727317 -0.0086116893 0.48300001
-0.083199546 -0.0086116893 0.48300001
-0.081162512 -0.0086116893 0.48300001
-0.079634741 -0.0086116893 0.48300001
-0.12215894 -0.0065610465 0.48200002
-0.11872508 -0.0075853141 0.48250002
-0.11707691 -0.0075774533 0.48200002
-0.11453588 -0.0075774533 0.48200002
-0.11301129 -0.0075774533 0.48200002
-0.11148667 -0.0075774533 0.48200002
-0.10945386 -0.0075774533 0.48200002
-0.10742104 -0.0075774533 0.48200002
-0.1049883 -0.0073312121 0.48250002
-0.10295338 -0.00707711 0.48250002
-0.10091846 -0.00707711 0.48250002
-0.099392265 -0.0070771105 0.48250002
-0.097256981 -0.0075774533 0.48200002
-0.095224164 -0.0075774533 0.48200002
-0.093191355 -0.0075774533 0.48200002
-0.091158539 -0.0075774533 0.48200002
-0.089125723 -0.0075774533 0.48200002
-0.087092914 -0.0075774533 0.48200002
-0.078453459 -0.0075774533 0.48200002
-0.077437051 -0.0065610465 0.48200002
-0.075560674 -0.004537628 0.48300001
-0.11064648 -0.012738281 0.48500001
-0.10911238 -0.012738281 0.48500001
-0.10706691 -0.012738281 0.48500001
-0.11729424 -0.010692815 0.48500001
-0.11499947 -0.011026378 0.48466668
-0.1130866 -0.011193157 0.48449999
-0.11104325 -0.011193157 0.48449999
-0.10899989 -0.011193158 0.48450002
-0.10695653 -0.011193158 0.48450002
-0.10519191 -0.011033727 0.48500001
-0.11933971 -0.0091587156 0.48500001
-0.10684615 -0.0096501429 0.48400003
-0.10463481 -0.0093099354 0.48400006
-0.10292264 -0.0091542583 0.48475
-0.10093051 -0.0086473497 0.48500001
-0.098783627 -0.0086384341 0.48450002
-0.096739754 -0.009149801 0.48450002
-0.094696388 -0.009149801 0.48450002
-0.092791617 -0.0089763738 0.48433337
-0.090516165 -0.0086295195 0.48400003
-0.088985234 -0.0086295195 0.48400003
-0.087454297 -0.0086295195 0.48400003
-0.084989391 -0.009149801 0.48450002
-0.082521319 -0.0096700825 0.48500001
-0.080987222 -0.0096700825 0.48500001
-0.079228416 -0.0093232282 0.48466668
-0.077919021 -0.0086473497 0.48500001
-0.12062458 -0.0076088952 0.48400003
-0.077130795 -0.0072739273 0.48433337
-0.075873561 -0.0071132495 0.48500001
-0.076737739 -0.0055676466 0.48400003
-0.075873561 -0.0055791503 0.48500001
-0.11623751 -0.012790809 0.48700002
-0.11478938 -0.013466689 0.48666668
-0.11326592 -0.013106159 0.48600003
-0.11155786 -0.013447772 0.48600003
-0.10523798 -0.012764545 0.48600003
-0.10340062 -0.013304285 0.48700002
-0.10134673 -0.012790809 0.48700002
-0.095698498 -0.012790809 0.48700002
-0.12034531 -0.010736909 0.48700002
-0.11873174 -0.01139809 0.48600003
-0.11702366 -0.011739704 0.48600003
-0.11599882 -0.011739704 0.48600003
-0.10472556 -0.011739704 0.48600003
-0.10324112 -0.011233322 0.48625004
-0.10129444 -0.011244873 0.48675001
-0.09929283 -0.011250384 0.48700002
-0.09713909 -0.01123936 0.48650002
-0.095087297 -0.01123936 0.48650002
-0.093131125 -0.011250384 0.48700002
-0.091077223 -0.010736909 0.48700002
-0.089023322 -0.010736909 0.48700002
-0.08696942 -0.010736909 0.48700002
-0.084915519 -0.010736909 0.48700002
-0.082861617 -0.010736909 0.48700002
-0.080807716 -0.010736909 0.48700002
-0.078753814 -0.010736909 0.48700002
-0.076699913 -0.010736909 0.48700002
-0.12061061 -0.0091775991 0.48600003
-0.10113862 -0.0096900202 0.48600003
-0.099088937 -0.0096900202 0.48600003
-0.092427462 -0.0096900202 0.48600003
-0.090890206 -0.0096900202 0.48600003
-0.088840522 -0.0096900202 0.48600003
-0.086790837 -0.0096900202 0.48600003
-0.085253574 -0.0096900202 0.48600003
-0.078079686 -0.0096900202 0.48600003
-0.076542422 -0.0091775991 0.48600003
-0.12266029 -0.0076403371 0.48600003
-0.075005159 -0.005590654 0.48600003
-0.10001124 -0.014875192 0.48800004
-0.098982185 -0.014875192 0.48800004
-0.097438596 -0.014875192 0.48800004
-0.095380478 -0.014875192 0.48800004
-0.093322359 -0.014875192 0.48800004
-0.091357745 -0.015406018 0.48850006
-0.089388922 -0.015421258 0.48900002
-0.087326586 -0.015421257 0.48900002
-0.085264243 -0.015421258 0.48900002
-0.083201915 -0.015421258 0.48900002
-0.081139579 -0.014905673 0.48900002
-0.079077244 -0.014905673 0.48900002
-0.12211993 -0.012869603 0.49000001
-0.12083954 -0.012843338 0.48900002
-0.11917081 -0.013345789 0.48850006
-0.1172425 -0.01351257 0.4883334
-0.10206936 -0.013846133 0.48800004
-0.10035425 -0.013503114 0.48800004
-0.098982185 -0.013331603 0.48800004
-0.097438596 -0.013331603 0.48800004
-0.095208965 -0.013503114 0.48800004
-0.093322359 -0.013331603 0.48800004
-0.09126424 -0.013331603 0.48800004
-0.089206129 -0.013331603 0.48800004
-0.087192379 -0.013338696 0.48825005
-0.085177064 -0.013345789 0.48850006
-0.083116844 -0.01334579 0.48850003
-0.081015393 -0.013338696 0.48825005
-0.078915529 -0.013331603 0.48800004
-0.077028923 -0.013160094 0.48800004
-0.12211993 -0.011319688 0.49000001
-0.12059242 -0.011788014 0.48800004
-0.09126424 -0.011788014 0.48800004
-0.089206122 -0.011788014 0.48800004
-0.087148003 -0.011788014 0.48800004
-0.085089885 -0.011788014 0.48800004
-0.083031766 -0.011788014 0.48800004
-0.080973648 -0.011788014 0.48800004
-0.078915529 -0.011788014 0.48800004
-0.07685741 -0.011788014 0.48800004
-0.1218707 -0.0097498344 0.48900002
-0.12469336 -0.010847145 0.49200001
-0.12365587 -0.011365891 0.49200001
-0.12469336 -0.0092909038 0.49200001
-0.1235302 -0.0092819883 0.49150002
