# .PCD v0.7 - Point Cloud Data file format
VERSION 0.7
FIELDS x y z
SIZE 4 4 4
TYPE F F F
COUNT 1 1 1
WIDTH 1286
HEIGHT 1
VIEWPOINT 0 0 0 1 0 0 0
POINTS 1286
DATA ascii
-0.090769373 0.08122088 0.324
-0.089032821 0.08090774 0.324
-0.0871199 0.08121784 0.32387501
-0.085531287 0.081676364 0.324
-0.092705183 0.083042823 0.324
-0.090841785 0.082900196 0.32344443
-0.08901345 0.082786515 0.32300001
-0.087126195 0.082935847 0.3235833
-0.08518967 0.083042823 0.324
-0.092591308 0.084637016 0.324
-0.09071625 0.084829874 0.32299998
-0.089013442 0.084829867 0.32300001
-0.087036625 0.084895536 0.32325
-0.085258 0.084955864 0.324
-0.090419501 0.086845011 0.32339999
-0.08898516 0.087086715 0.32342857
-0.087072082 0.087007105 0.32372722
-0.085531287 0.086800575 0.324
-0.088776618 0.088679448 0.324
-0.087239355 0.08885026 0.324
-0.091277957 0.079872444 0.32500002
-0.089221947 0.079872444 0.32500002
-0.087165937 0.079872444 0.32500002
-0.085795261 0.079872437 0.32500002
-0.094190635 0.081071779 0.32500002
-0.092922762 0.081380181 0.32500002
-0.091734849 0.080786228 0.32500002
-0.08682327 0.080557778 0.32500002
-0.085452594 0.081243113 0.32500002
-0.094019309 0.083299123 0.32500002
-0.0844246 0.083299123 0.32500002
-0.083739251 0.083984457 0.32500002
-0.084424593 0.085012466 0.32500002
-0.083739251 0.085012466 0.32500002
-0.091963291 0.086725801 0.32500002
-0.084767267 0.086725801 0.32500005
-0.083739251 0.086040467 0.32500002
-0.091277957 0.088096477 0.32500002
-0.089564614 0.089467153 0.32500002
-0.086480595 0.089124486 0.32500002
-0.085521124 0.088644743 0.32500002
-0.087165937 0.090152487 0.32500002
-0.094815105 0.079012364 0.32616669
-0.093028724 0.078823127 0.32633334
-0.09096428 0.078823127 0.32633337
-0.088899836 0.078823127 0.32633337
-0.086965673 0.078949489 0.3265
-0.084857188 0.079248421 0.32666668
-0.083013378 0.079398587 0.32700002
-0.095274106 0.080732748 0.32616666
-0.093392 0.080347352 0.32600003
-0.084959328 0.080668166 0.32600001
-0.083113238 0.080950059 0.32658336
-0.081496358 0.081053518 0.32700002
-0.095141739 0.082651362 0.3265
-0.084684357 0.082180537 0.32600001
-0.083091944 0.082995087 0.3265
-0.094597884 0.08519084 0.32700002
-0.093908325 0.085880391 0.32700002
-0.083135061 0.085103653 0.32666668
-0.092589974 0.086992651 0.32600001
-0.083350524 0.087212272 0.3265
-0.090871364 0.089054994 0.32600001
-0.084735893 0.089247122 0.32620001
-0.083500609 0.088743232 0.32675001
-0.090667017 0.090223804 0.3265
-0.088946521 0.090842351 0.32600001
-0.086640827 0.091015339 0.32624999
-0.084856838 0.090729386 0.32666668
-0.083565019 0.090017721 0.32700002
-0.088736676 0.092086382 0.32700002
-0.08701279 0.09208639 0.32700002
-0.096598893 0.077690929 0.32833338
-0.094983608 0.077575654 0.32833335
-0.092953674 0.077614851 0.32850003
-0.090921618 0.077307522 0.32866669
-0.088951401 0.077240571 0.32875001
-0.087065041 0.077614851 0.32850003
-0.084986888 0.077614851 0.32850003
-0.083382353 0.077386625 0.32900003
-0.096685492 0.079088069 0.32800004
-0.095578834 0.078534737 0.32800001
-0.08658722 0.078534737 0.32800001
-0.084921956 0.078421153 0.32825002
-0.082982488 0.078498572 0.32833338
-0.08134491 0.079128869 0.32855558
-0.079913497 0.079467945 0.32900003
-0.096962161 0.080955565 0.32800001
-0.080998085 0.081072472 0.32812503
-0.079566613 0.080855489 0.32900003
-0.09676414 0.082463875 0.32850003
-0.081060104 0.082990378 0.32842863
-0.079913497 0.082936801 0.32900006
-0.095578834 0.084413871 0.32800001
-0.082437247 0.085105538 0.32800001
-0.081325449 0.084867053 0.32875001
-0.082521021 0.086923644 0.32833338
-0.081994817 0.087099433 0.32900006
-0.08261016 0.089082599 0.32800001
-0.081994809 0.089527629 0.32900003
-0.091222405 0.091469198 0.32850003
-0.084512234 0.091676332 0.32800001
-0.083236925 0.091103561 0.3284286
-0.081994809 0.090568282 0.32900003
-0.090045534 0.092367992 0.32800001
-0.089008041 0.093059659 0.32800001
-0.087278888 0.093405485 0.32800004
-0.085116707 0.092785724 0.32842863
-0.083382353 0.092649601 0.32900003
-0.088793769 0.094592161 0.32900003
-0.086677767 0.094557472 0.32900003
-0.085463665 0.094037138 0.32900003
-0.096802026 0.075763099 0.33100003
-0.095057063 0.075763099 0.33100003
-0.092963092 0.075763099 0.33100003
-0.090869121 0.075763099 0.33100003
-0.088949651 0.075588606 0.33100003
-0.098821566 0.077449262 0.33075002
-0.097124949 0.076859444 0.3305715
-0.094913468 0.076693527 0.33050004
-0.09303017 0.076578029 0.33000001
-0.091290474 0.076230094 0.33000001
-0.089202836 0.076230094 0.33000001
-0.087115198 0.076578036 0.33000004
-0.085375495 0.076925971 0.33000001
-0.082842253 0.077857062 0.33100003
-0.08109729 0.077857062 0.33100003
-0.079003319 0.077857062 0.33100003
-0.077607334 0.077857062 0.33100003
-0.098747134 0.079133332 0.33050001
-0.080678299 0.078491703 0.33000001
-0.078870475 0.07911931 0.33044446
-0.076996587 0.079340287 0.33100006
-0.07551337 0.079951033 0.33100003
-0.098249279 0.080753312 0.33000001
-0.078416698 0.081101254 0.33000004
-0.076909348 0.080998018 0.33100006
-0.07551337 0.080998018 0.33100003
-0.098547004 0.082044996 0.33100003
-0.096857518 0.083884768 0.33000001
-0.07893163 0.083061792 0.33028576
-0.077432841 0.082568489 0.33100003
-0.080330364 0.0854505 0.33000001
-0.079079516 0.084794246 0.33083338
-0.080933236 0.087104127 0.33033335
-0.079701304 0.086581923 0.33100003
-0.082244031 0.088755935 0.33000001
-0.081092127 0.088837311 0.33062503
-0.082244031 0.09153945 0.33000001
-0.081630528 0.090934627 0.33033335
-0.091080859 0.093419954 0.33050001
-0.084331676 0.093627095 0.33000001
-0.082812302 0.093111388 0.33028576
-0.081562608 0.092747495 0.33100003
-0.089550778 0.095366791 0.33000001
-0.087115191 0.095714733 0.33000001
-0.085070148 0.09495087 0.3301667
-0.083423913 0.094841465 0.33100003
-0.090171136 0.096353769 0.33100003
-0.088861108 0.097063124 0.33080003
-0.087081194 0.096806668 0.33040005
-0.08540155 0.096702769 0.33100006
-0.088542506 0.098331407 0.33100003
-0.08737918 0.09809874 0.33100003
-0.10039589 0.075755335 0.33250001
-0.098906077 0.07549227 0.33250001
-0.096890144 0.075054184 0.33250004
-0.094955206 0.075006641 0.33260003
-0.093033276 0.075054184 0.33249998
-0.091212288 0.075173043 0.33225
-0.088960461 0.075518675 0.333
-0.087775156 0.075755335 0.33250001
-0.10024492 0.07704214 0.33200002
-0.09919478 0.076692089 0.33200002
-0.086650223 0.076377951 0.3326667
-0.084851094 0.076690413 0.33237502
-0.082825556 0.076768383 0.33233333
-0.080946319 0.076690175 0.3324286
-0.079087481 0.076768383 0.33233333
-0.077140793 0.076865703 0.33237502
-0.075326696 0.076981723 0.33287498
-0.073628962 0.07739123 0.333
-0.10024492 0.078792386 0.33200002
-0.076674975 0.078325652 0.33200002
-0.075066291 0.078818522 0.33211112
-0.073511928 0.079029709 0.333
-0.10024492 0.080192581 0.33200002
-0.099694744 0.0813656 0.33250001
-0.07469137 0.080892682 0.33200002
-0.073511928 0.081136324 0.333
-0.076767698 0.083183408 0.33220002
-0.075241938 0.083030976 0.33250001
-0.073863029 0.082540736 0.333
-0.078541897 0.08544331 0.33200002
-0.0773407 0.085002787 0.33242857
-0.078863047 0.087171428 0.33225
-0.077374056 0.086402871 0.333
-0.095631421 0.088860594 0.333
-0.080642194 0.089993946 0.33200002
-0.079302609 0.088935293 0.332625
-0.093243949 0.091394141 0.33200002
-0.080762938 0.091181383 0.33250004
-0.079480678 0.090265006 0.333
-0.092543848 0.092794336 0.33200002
-0.081113689 0.092934087 0.33250001
-0.091280922 0.095388636 0.33250001
-0.08270853 0.095223978 0.33233336
-0.08135049 0.094933972 0.33275002
-0.090930872 0.09713994 0.33250001
-0.084422722 0.09713494 0.33200002
-0.083362773 0.09708862 0.3328
-0.090579763 0.098894402 0.33250001
-0.089160047 0.099328578 0.33200002
-0.086943075 0.09909521 0.33200002
-0.084969848 0.098894052 0.33250004
-0.083693914 0.098691486 0.333
-0.090364873 0.100447 0.333
-0.088826887 0.10099786 0.33250001
-0.087029502 0.10091225 0.33271429
-0.085566461 0.10032997 0.333
-0.10115075 0.073852971 0.33500001
-0.099031471 0.073852971 0.33500001
-0.096912205 0.073852971 0.33500001
-0.094792925 0.073852971 0.33500001
-0.10256359 0.075265825 0.33500001
-0.101036 0.074903511 0.33428577
-0.098735854 0.074336842 0.33400005
-0.096975073 0.074336834 0.33400002
-0.095214278 0.074336842 0.33400005
-0.093453497 0.074336834 0.33400002
-0.090907604 0.075265817 0.33500001
-0.08914154 0.075265817 0.33500001
-0.086892389 0.075505644 0.33450001
-0.084942482 0.075457685 0.33460003
-0.083012328 0.075505644 0.33450004
-0.081083857 0.075553611 0.33440003
-0.079133324 0.075505644 0.33450001
-0.077017218 0.075505644 0.33450004
-0.074901104 0.075505644 0.33450001
-0.072857186 0.075581238 0.33483335
-0.071480945 0.075972244 0.33500001
-0.10155313 0.077154092 0.33400005
-0.074436992 0.076449774 0.33400002
-0.072829507 0.076957472 0.33416671
-0.071409121 0.077190004 0.3346667
-0.10155312 0.078914881 0.33400002
-0.072676204 0.07926704 0.33400005
-0.071409121 0.078954309 0.3346667
-0.072513267 0.081226431 0.33433336
-0.071437851 0.080727622 0.33480003
-0.074084833 0.083492927 0.33400002
-0.072799943 0.082930252 0.33457145
-0.076197773 0.085253716 0.33400002
-0.074840531 0.08514899 0.33462501
-0.073600218 0.084449328 0.33500001
-0.076766044 0.087189861 0.33428577
-0.075719491 0.086921811 0.33500001
-0.096912205 0.088687867 0.33500001
-0.078545496 0.089596987 0.33400005
-0.077227153 0.088917494 0.33480003
-0.095004663 0.091023766 0.33450001
-0.079054117 0.091168545 0.33416671
-0.077838764 0.09080714 0.33500001
-0.094439715 0.092926413 0.33500001
-0.093805648 0.09264902 0.33400002
-0.080658436 0.093118571 0.33400005
-0.079345159 0.092729643 0.33480003
-0.092888549 0.09455061 0.33450001
-0.080720142 0.095079377 0.33450001
-0.079958029 0.094339259 0.33500001
-0.091692708 0.097579226 0.33400002
-0.082383506 0.097441837 0.33433336
-0.081273302 0.096908078 0.33460003
-0.079958029 0.096458532 0.33500001
-0.091784224 0.09908735 0.33433336
-0.082908429 0.099152744 0.3345556
-0.091239072 0.10136233 0.33440003
-0.086058185 0.10180512 0.33400002
-0.084808841 0.10126864 0.33416671
-0.083641849 0.10083234 0.3346667
-0.090554386 0.10281634 0.33500001
-0.088964492 0.1029646 0.33433339
-0.086805448 0.1029131 0.33416671
-0.084903002 0.10293408 0.33500001
-0.088717692 0.10479434 0.33500001
-0.087110579 0.10484733 0.33500001
-0.087728694 0.10634846 0.33500001
-0.1045972 0.073583245 0.33700001
-0.10298722 0.073013268 0.3367143
-0.10087764 0.072751768 0.33644444
-0.099071018 0.072727747 0.33633336
-0.097343199 0.073081486 0.33600003
-0.095263839 0.073510468 0.33666667
-0.093937576 0.073583245 0.33700001
-0.074394949 0.073227927 0.33700001
-0.072973669 0.073227927 0.33700001
-0.071374722 0.073405586 0.33700001
-0.069775775 0.073583245 0.33700001
-0.1045972 0.0746492 0.33700001
-0.10340115 0.074604832 0.33600003
-0.092974581 0.074489109 0.33660004
-0.090959862 0.074537925 0.33650002
-0.088999204 0.074489109 0.33660004
-0.087056607 0.074537918 0.33650002
-0.085115694 0.074586727 0.33640003
-0.08315441 0.074537918 0.33650002
-0.081025645 0.074537925 0.33650002
-0.07889688 0.074537925 0.33650002
-0.076932631 0.074489109 0.33660004
-0.074993625 0.074537918 0.33650002
-0.073013201 0.074542634 0.33620003
-0.071009032 0.074806459 0.33611113
-0.069128081 0.07506527 0.33687502
-0.067643851 0.075715162 0.33700001
-0.10331075 0.077060148 0.33666667
-0.070454389 0.07673043 0.33600003
-0.06897334 0.077034488 0.33655554
-0.067643851 0.07713645 0.33700001
-0.070277259 0.079033159 0.33600006
-0.068973348 0.079164065 0.33655554
-0.067643851 0.07855773 0.33700001
-0.070560671 0.08130046 0.33600003
-0.06936869 0.080985121 0.33675
-0.072402857 0.083992884 0.33600003
-0.071146771 0.083152443 0.33628574
-0.069775775 0.08246626 0.33700001
-0.073012784 0.085177377 0.33620006
-0.071197063 0.084598184 0.33700001
-0.074758463 0.087356344 0.3364
-0.073374197 0.086762756 0.33666667
-0.097910024 0.088244081 0.33600003
-0.076654054 0.089661144 0.33600003
-0.075281717 0.088942006 0.33655554
-0.096636549 0.090859473 0.33650002
-0.095784426 0.091786742 0.33600003
-0.076852441 0.090991646 0.33642858
-0.075460911 0.09063863 0.33700001
-0.095430166 0.093203813 0.33600003
-0.07863795 0.093345515 0.33600003
-0.077120394 0.092857622 0.33680001
-0.0960695 0.094191834 0.33700001
-0.094791487 0.095045492 0.33666667
-0.093658827 0.095329404 0.33600003
-0.080196716 0.095329404 0.33600003
-0.078935266 0.0949267 0.33666667
-0.077592827 0.094191834 0.33700001
-0.09464822 0.096323758 0.33700001
-0.093289457 0.09666235 0.3362
-0.080432892 0.09698265 0.33600006
-0.079487875 0.096560642 0.33700001
-0.093226939 0.099166326 0.33700001
-0.080936283 0.099108025 0.33649999
-0.079724751 0.098455682 0.33700001
-0.093226939 0.10058761 0.33700001
-0.082676575 0.10099766 0.33600003
-0.081440628 0.10086831 0.33675
-0.092516296 0.10271953 0.33700001
-0.091178969 0.10347752 0.33600003
-0.084447905 0.10383179 0.33600003
-0.083272673 0.10289256 0.33657143
-0.081856675 0.10200889 0.33700001
-0.090453647 0.10516981 0.3362
-0.089407638 0.10595739 0.33600003
-0.086573504 0.10595739 0.33600003
-0.085329778 0.10513593 0.33628571
-0.083633281 0.10485145 0.33700001
-0.088999204 0.10728278 0.33660001
-0.086701982 0.10717963 0.33650002
-0.085409887 0.10662805 0.33700001
-0.088607773 0.10840466 0.33700001
-0.087541811 0.10840466 0.33700001
-0.10679035 0.071215585 0.33983335
-0.1049376 0.071211934 0.33925
-0.10298651 0.071303569 0.3387143
-0.10120618 0.071495734 0.33833337
-0.099918328 0.071663342 0.33800003
-0.080792956 0.071370423 0.34
-0.078884363 0.071622893 0.33950001
-0.076902196 0.071572401 0.33960003
-0.075139225 0.071673386 0.33940002
-0.073157057 0.071622893 0.33950004
-0.071009323 0.071622893 0.33950004
-0.069091007 0.071496658 0.33975002
-0.067170575 0.071370423 0.34
-0.10699153 0.072660893 0.33933336
-0.10519724 0.072886951 0.33816671
-0.10348208 0.072376095 0.33800003
-0.098816097 0.072288528 0.3396
-0.096884325 0.072517186 0.33914289
-0.094970949 0.072588816 0.33900002
-0.092950083 0.073004477 0.33881822
-0.09105853 0.072907232 0.33927274
-0.089083388 0.073082529 0.33918181
-0.08698827 0.073303491 0.33900002
-0.084962927 0.07330367 0.33900002
-0.082938433 0.073110342 0.33909997
-0.081021138 0.072887756 0.33918181
-0.078928314 0.073232293 0.33866671
-0.076971866 0.073252141 0.33828577
-0.075257182 0.072803751 0.33800003
-0.072833829 0.072376095 0.33800003
-0.071051955 0.072732471 0.33800003
-0.068946511 0.072892711 0.33875
-0.066746123 0.072732501 0.33966666
-0.065139174 0.073282331 0.34
-0.10680497 0.074487597 0.33950001
-0.1054869 0.075301282 0.33833337
-0.06830132 0.074267142 0.33850002
-0.067190908 0.074768782 0.33875
-0.065313369 0.07488177 0.33966666
-0.066658318 0.076929539 0.33922222
-0.065378159 0.076747678 0.34
-0.06673722 0.079071917 0.33890003
-0.068386659 0.08148478 0.33833337
-0.067033157 0.080956846 0.33911115
-0.068900146 0.083070144 0.33837503
-0.067120925 0.082780987 0.33975002
-0.072121076 0.085918345 0.33800003
-0.070933163 0.085680768 0.33800003
-0.068993643 0.084910996 0.33909997
-0.06752906 0.084275834 0.34
-0.072429791 0.087192401 0.33833337
-0.071008973 0.087135047 0.33950004
-0.069440976 0.086665735 0.34
-0.074259326 0.089482091 0.33800003
-0.072956368 0.088919416 0.33857146
-0.071591876 0.088816628 0.34
-0.074862897 0.091125287 0.33842862
-0.073069431 0.090819031 0.33957145
-0.071830861 0.090011574 0.34
-0.097210914 0.092827111 0.33850002
-0.076397583 0.093045853 0.33800003
-0.075192481 0.092963696 0.33900005
-0.073981769 0.09252096 0.34
-0.096998133 0.094748735 0.33900002
-0.095641829 0.09589684 0.33800003
-0.078535825 0.09589684 0.33800003
-0.077147998 0.095112234 0.33816671
-0.075393632 0.094801232 0.33950001
-0.096924722 0.096464276 0.34
-0.095567361 0.097252846 0.33900002
-0.078593388 0.097216137 0.33825004
-0.07683333 0.096981376 0.33930001
-0.075415701 0.096464276 0.34
-0.094402157 0.098943315 0.33866668
-0.079007849 0.098626114 0.33850005
-0.077208117 0.098973662 0.34
-0.094773822 0.10112457 0.34
-0.093503579 0.10159884 0.33800003
-0.080515355 0.10146146 0.33833337
-0.07937488 0.10069374 0.33922222
-0.077566601 0.10004912 0.34
-0.082337163 0.10349952 0.33800003
-0.080871932 0.10292127 0.33883339
-0.079478517 0.102917 0.34
-0.082718357 0.10508227 0.33820006
-0.081120931 0.10482402 0.33949998
-0.090652578 0.10730084 0.33800003
-0.084656507 0.10702382 0.33825001
-0.082967445 0.10699305 0.33900002
-0.081581622 0.10707539 0.34
-0.08922708 0.10920151 0.33800003
-0.086997382 0.10921874 0.33820006
-0.084934287 0.10877422 0.33888891
-0.082943857 0.10901122 0.34
-0.08186841 0.10865273 0.34
-0.084975265 0.11032565 0.34
-0.10871501 0.071220785 0.34100002
-0.10745662 0.070321947 0.34100002
-0.10511963 0.07014218 0.34100002
-0.10080519 0.071580335 0.34100002
-0.099007487 0.071580328 0.34100002
-0.097209796 0.071580335 0.34100002
-0.09505257 0.071580335 0.34100002
-0.092895344 0.071580335 0.34100002
-0.090738118 0.071580335 0.34100002
-0.088940427 0.071580328 0.34100002
-0.087142728 0.071580335 0.34100002
-0.08498551 0.071580335 0.34100002
-0.082648501 0.071400553 0.34100002
-0.081030585 0.07086125 0.34100002
-0.079232901 0.07086125 0.34100002
-0.07707566 0.07086125 0.34100002
-0.074918434 0.07086125 0.34100002
-0.072761208 0.07086125 0.34100002
-0.070963517 0.07086125 0.34100002
-0.069165826 0.070501715 0.34100005
-0.067008592 0.07086125 0.34100005
-0.064995185 0.071292691 0.34100005
-0.10799593 0.073378019 0.34100002
-0.088580884 0.072299406 0.34100002
-0.087142728 0.072299406 0.34100002
-0.08498551 0.072299406 0.34100002
-0.064611673 0.072778791 0.34100005
-0.063413218 0.073018484 0.34100002
-0.10799593 0.074456632 0.34100002
-0.064132288 0.075175717 0.34100002
-0.063413218 0.07517571 0.34100002
-0.064611673 0.076853558 0.34100002
-0.065390676 0.078591324 0.34100002
-0.065570444 0.080928318 0.34100002
-0.066469289 0.083265319 0.34100002
-0.065570444 0.082366474 0.34100002
-0.067368135 0.085242778 0.34100002
-0.068686441 0.087160312 0.34100002
-0.070783749 0.089017928 0.34100002
-0.069884904 0.088119082 0.34100002
-0.07204213 0.091354921 0.34100002
-0.071323059 0.090635851 0.34100002
-0.074199364 0.09387169 0.34100002
-0.072905026 0.092721164 0.34100005
-0.074199364 0.094950303 0.34100002
-0.074918441 0.096747994 0.34100005
-0.096490718 0.098186143 0.34100002
-0.095771641 0.099264756 0.34100002
-0.07635659 0.099264756 0.34100002
-0.075637512 0.098545685 0.34100002
-0.078873351 0.10106245 0.34100002
-0.076716125 0.10034338 0.34100002
-0.078993201 0.10345937 0.34100002
-0.079712287 0.10489752 0.34100002
-0.080671057 0.10681506 0.34100002
-0.079951972 0.10645552 0.34100002
-0.082109198 0.10969137 0.34100002
-0.081210352 0.10879251 0.34100002
-0.11043757 0.069468632 0.34300002
-0.10901668 0.06941881 0.34240004
-0.10712921 0.069496766 0.34225002
-0.10501288 0.069830284 0.34300002
-0.10356628 0.069830276 0.34300002
-0.084760651 0.069830284 0.34300002
-0.082952417 0.069830276 0.34300002
-0.081144184 0.069830284 0.34300002
-0.078974299 0.069830284 0.34300002
-0.076804429 0.069830284 0.34300002
-0.074996188 0.069830276 0.34300002
-0.072958373 0.06945952 0.34260005
-0.070914552 0.069366835 0.34250003
-0.068912141 0.06931486 0.34260005
-0.067139052 0.06941881 0.34240004
-0.065136641 0.069366843 0.34250003
-0.06300021 0.069400772 0.34266672
-0.061374165 0.069589183 0.34300002
-0.1104762 0.070347875 0.34200001
-0.10951462 0.070588276 0.34200001
-0.10428958 0.070553571 0.34300002
-0.1028673 0.070759766 0.34260005
-0.10107438 0.070862867 0.34240004
-0.099081889 0.070811316 0.34250003
-0.096915156 0.070811316 0.34250003
-0.094920345 0.070759766 0.34260002
-0.093132064 0.070862867 0.34240004
-0.091137253 0.070811316 0.34250003
-0.088970535 0.070811316 0.34250006
-0.086973391 0.070759766 0.34260005
-0.08518976 0.070862867 0.34240004
-0.083215408 0.070636354 0.34200001
-0.080907628 0.070347875 0.34200001
-0.078744069 0.070347875 0.34200001
-0.076941103 0.070347875 0.34200001
-0.075138137 0.070347875 0.34200001
-0.072974585 0.070347875 0.34200001
-0.071171626 0.070347875 0.34200001
-0.066844508 0.070347875 0.34200001
-0.064861253 0.070528172 0.34200001
-0.06287799 0.071069069 0.34200001
-0.060943972 0.071010545 0.34271434
-0.11007593 0.072000153 0.34300002
-0.10903383 0.072872028 0.34200001
-0.062517397 0.073232621 0.34200001
-0.060832091 0.072893173 0.34266669
-0.10899098 0.074893326 0.34300002
-0.062517397 0.07503558 0.34200001
-0.061145362 0.074994318 0.34280005
-0.064320363 0.077559724 0.34200001
-0.062856257 0.07701347 0.34237501
-0.061615262 0.076339915 0.34300002
-0.064646445 0.079192951 0.34220001
-0.063604318 0.079052269 0.34300002
-0.06501057 0.081019141 0.34260005
-0.063785143 0.080679677 0.34300002
-0.06531693 0.082908556 0.34250003
-0.066483915 0.085132167 0.34200001
-0.065408729 0.084696077 0.34266672
-0.067288719 0.087044075 0.34242859
-0.06595502 0.086466029 0.34300002
-0.070089847 0.089459278 0.34200001
-0.06887158 0.088769756 0.34240004
-0.06740161 0.088635907 0.34300002
-0.070724994 0.091306716 0.34216666
-0.069390669 0.090624966 0.34300002
-0.072253399 0.093425795 0.34200001
-0.070983216 0.093051046 0.34283337
-0.073144481 0.094882295 0.34237501
-0.071741365 0.094783902 0.34300002
-0.09749487 0.097752899 0.34200001
-0.074416958 0.097392306 0.34200001
-0.073598325 0.096739367 0.34266672
-0.097056642 0.099485308 0.34300002
-0.075080931 0.099166632 0.34240004
-0.07391125 0.098038726 0.34300002
-0.096694991 0.10057025 0.34300002
-0.078022882 0.10135882 0.34200001
-0.076654449 0.10145762 0.34233338
-0.075525001 0.10059272 0.34266672
-0.095331319 0.1028012 0.34200001
-0.078402601 0.10277762 0.34240004
-0.077527717 0.10237849 0.34300002
-0.078603193 0.10515576 0.34228572
-0.080186434 0.10784949 0.34200001
-0.079268865 0.10710894 0.34240004
-0.080426835 0.10905147 0.34200001
-0.079335943 0.10888813 0.34300002
-0.064696506 0.067857653 0.34400001
-0.063608408 0.067857653 0.34400001
-0.11110868 0.068648815 0.34433335
-0.10930874 0.068583056 0.34400001
-0.10682127 0.069277696 0.34475002
-0.10492115 0.068992846 0.34460002
-0.10311725 0.069098048 0.34440002
-0.101442 0.069328062 0.34500003
-0.099077597 0.069509938 0.34500003
-0.096895061 0.069509938 0.34500003
-0.095076278 0.069509938 0.34500003
-0.093257509 0.069509938 0.34500003
-0.091074973 0.069509938 0.34500003
-0.088746935 0.069218934 0.34500003
-0.086947471 0.069045447 0.34450001
-0.085131332 0.069045447 0.34450001
-0.082951963 0.069045447 0.34450004
-0.080941118 0.068992846 0.34460002
-0.079151146 0.069098048 0.34440002
-0.077140301 0.069045447 0.34450004
-0.074960932 0.069045447 0.34450004
-0.072816782 0.068473473 0.34466669
-0.071162447 0.068371795 0.34440002
-0.069149286 0.068318993 0.34450004
-0.066969924 0.068318993 0.34450004
-0.065243505 0.068407014 0.34433335
-0.063109793 0.068451017 0.34424999
-0.061128676 0.068770066 0.34433335
-0.059006721 0.069442786 0.34466669
-0.11217279 0.071692474 0.34500003
-0.11160585 0.070759267 0.34400004
-0.10278012 0.070033863 0.34400001
-0.10096662 0.070033863 0.34400004
-0.098790407 0.070033863 0.34400004
-0.096976906 0.070033863 0.34400001
-0.095163397 0.070033863 0.34400004
-0.092987202 0.070033863 0.34400004
-0.090810984 0.070033863 0.34400004
-0.088997483 0.070033863 0.34400001
-0.087183975 0.070033863 0.34400004
-0.060344093 0.070033863 0.34400001
-0.058968678 0.070850462 0.34444448
-0.057609469 0.070964962 0.34500003
-0.1108533 0.073076822 0.34466669
-0.058968678 0.073029943 0.34444445
-0.057609469 0.072419979 0.34500003
-0.10999026 0.075330026 0.34500003
-0.060344093 0.07511168 0.34400004
-0.059341595 0.074857622 0.34450001
-0.108899 0.07714881 0.34500003
-0.060994584 0.077087179 0.34440002
-0.059792005 0.076421291 0.34500003
-0.062762104 0.079222292 0.34400004
-0.061647601 0.078776725 0.34480003
-0.063142613 0.081153244 0.34457147
-0.06456165 0.083151489 0.34424999
-0.063610077 0.082767829 0.34466669
-0.064625815 0.085220121 0.34440002
-0.066147313 0.087443523 0.34400001
-0.064821184 0.087007076 0.34466669
-0.068323523 0.089619726 0.34400001
-0.066720404 0.089072086 0.34428576
-0.065612093 0.088788986 0.34500003
-0.068686217 0.091070533 0.34400001
-0.067552119 0.090850264 0.34500003
-0.070499726 0.093972139 0.34400001
-0.069148488 0.093018778 0.34450004
-0.067794621 0.092062779 0.34500003
-0.070913658 0.095129594 0.34424999
-0.069613397 0.094609067 0.34500003
-0.098790415 0.096873753 0.34400001
-0.07262475 0.097209774 0.34433335
-0.071390346 0.096808456 0.34480003
-0.098065011 0.099412657 0.34400001
-0.074126735 0.099412657 0.34400001
-0.073144265 0.098830692 0.34450001
-0.096614204 0.10195157 0.34400001
-0.074803069 0.1013239 0.34433335
-0.073614709 0.10042915 0.34500003
-0.096895061 0.10297544 0.34500003
-0.076927625 0.10317232 0.34420002
-0.075196676 0.10290083 0.34475002
-0.077395543 0.10496727 0.34471431
-0.078479148 0.10739209 0.34400001
-0.077753745 0.10666668 0.34400001
-0.11282307 0.067717709 0.347
-0.10440819 0.067717709 0.347
-0.10294473 0.067717709 0.347
-0.10148127 0.067717709 0.347
-0.090871215 0.067717716 0.347
-0.089041889 0.067717709 0.347
-0.087212577 0.067717716 0.347
-0.085017383 0.067717716 0.347
-0.082675859 0.067425013 0.347
-0.081114836 0.067473799 0.347
-0.079163559 0.067351848 0.347
-0.077151306 0.067534775 0.347
-0.074773192 0.067717716 0.347
-0.072821915 0.067473799 0.347
-0.07101208 0.067254268 0.34650001
-0.068985835 0.067200609 0.34660003
-0.067192927 0.067307927 0.34640002
-0.065302603 0.067388415 0.34625
-0.11428653 0.069547027 0.347
-0.11300116 0.068875328 0.34619999
-0.11062788 0.068449438 0.347
-0.10889266 0.068662383 0.34660003
-0.10707458 0.068582527 0.34674999
-0.10483693 0.068252176 0.34600002
-0.10301287 0.068252176 0.34600005
-0.10087223 0.068649866 0.3461667
-0.098952129 0.068662383 0.34660003
-0.097141922 0.068768851 0.34639999
-0.095124327 0.068715617 0.34650001
-0.092932306 0.068715617 0.34650001
-0.091040149 0.068666302 0.34625
-0.089332506 0.068434581 0.34600002
-0.08696124 0.068252176 0.34600005
-0.084772378 0.068252176 0.34600005
-0.082948335 0.068252176 0.34600002
-0.081124291 0.068252176 0.34600005
-0.078935429 0.068252176 0.34600005
-0.076746568 0.068252176 0.34600005
-0.074922517 0.068252176 0.34600002
-0.073463276 0.068252176 0.34600002
-0.060870349 0.068449438 0.347
-0.059191644 0.068808727 0.3466
-0.057316236 0.069285706 0.347
-0.11428653 0.071010485 0.347
-0.11322755 0.070805848 0.34600002
-0.056820091 0.07110659 0.34640002
-0.05574825 0.071376354 0.347
-0.1129586 0.072769843 0.34666666
-0.11176831 0.073359519 0.34600002
-0.056885011 0.072978064 0.34650001
-0.05574825 0.072108082 0.347
-0.11209134 0.074303262 0.347
-0.11119916 0.075292736 0.34650001
-0.058506072 0.07518357 0.34600002
-0.057583954 0.07480257 0.34660003
-0.11046848 0.076754093 0.34650001
-0.10989615 0.077961907 0.347
-0.059099995 0.077207841 0.34642857
-0.057943434 0.076498449 0.347
-0.10900784 0.079188973 0.34650001
-0.060738258 0.079253696 0.34625
-0.059686102 0.078580245 0.34650001
-0.10872045 0.080830544 0.34674999
-0.10739059 0.081385337 0.34600002
-0.06215417 0.081020527 0.34600002
-0.060962718 0.080849968 0.34683332
-0.062481947 0.083038814 0.34619999
-0.061602078 0.083084017 0.347
-0.064343028 0.085763052 0.34600002
-0.063065313 0.084929995 0.34642857
-0.064343028 0.087951913 0.34600002
-0.063431032 0.086934082 0.34660003
-0.06475433 0.089110941 0.34625
-0.063553356 0.089181744 0.347
-0.066839188 0.091445051 0.34633335
-0.065409899 0.090758502 0.34650001
-0.06735801 0.093071774 0.34650001
-0.10009439 0.095977731 0.34600002
-0.070179984 0.095977731 0.34600002
-0.068786249 0.095217913 0.34633335
-0.067455903 0.094059937 0.347
-0.070490807 0.09728764 0.34633335
-0.06940718 0.096986853 0.347
-0.099364772 0.098166592 0.34600002
-0.072368845 0.099261023 0.34600002
-0.070945963 0.09916658 0.34662497
-0.098635159 0.10108507 0.34600002
-0.097905539 0.10181469 0.34600002
-0.072994374 0.10099757 0.34619999
-0.071846277 0.10101135 0.347
-0.074299589 0.10342317 0.34650001
-0.073267058 0.10263506 0.3468
-0.076260157 0.10521959 0.34600005
-0.074944578 0.1046914 0.34666666
-0.076765478 0.107168 0.34649998
-0.075504921 0.10649931 0.347
-0.080723763 0.065900177 0.34900001
-0.078883901 0.065900177 0.34900004
-0.077044025 0.065900177 0.34900001
-0.075204164 0.065900177 0.34900004
-0.072996333 0.065900177 0.34900004
-0.070788488 0.065900177 0.34900004
-0.069316596 0.065900177 0.34900001
-0.11457726 0.067372069 0.34900001
-0.11290172 0.067588389 0.34860003
-0.11092704 0.067696549 0.3484
-0.10890143 0.067642473 0.34850001
-0.10687413 0.067588389 0.3486
-0.10510998 0.06714724 0.3486
-0.1030223 0.06690757 0.34850001
-0.1008171 0.067459002 0.34850001
-0.098979875 0.067642473 0.34850001
-0.096968107 0.067696549 0.34840003
-0.094880551 0.067390881 0.348625
-0.092924483 0.067156032 0.34842861
-0.091090657 0.066961862 0.3484
-0.089059353 0.066907577 0.34850001
-0.08702638 0.066853277 0.3486
-0.085016929 0.06690757 0.34850001
-0.083219305 0.06681709 0.34866667
-0.080917984 0.066676378 0.34825003
-0.079024777 0.066445187 0.34800002
-0.077043429 0.066738725 0.34800002
-0.074988678 0.066812113 0.34800002
-0.072970629 0.06662865 0.34800002
-0.070952572 0.066445187 0.34800002
-0.069117978 0.066445187 0.34800002
-0.067650303 0.066445187 0.34800002
-0.064900927 0.067004099 0.34900004
-0.063089244 0.067338422 0.34828576
-0.061104245 0.067242675 0.34833333
-0.058900628 0.067242667 0.34833336
-0.05711602 0.067363977 0.34820005
-0.11508077 0.068532899 0.34866667
-0.057009663 0.069013618 0.34800002
-0.055353124 0.069126867 0.34820005
-0.055219773 0.070696414 0.34828576
-0.11388205 0.073049724 0.34800002
-0.055541988 0.073049724 0.34800002
-0.11278129 0.074884318 0.34800002
-0.056560244 0.075190544 0.34840003
-0.1127374 0.07657139 0.34900001
-0.11168054 0.07708583 0.34800002
-0.05811042 0.077452749 0.34800002
-0.057033937 0.076997951 0.3486
-0.11200146 0.078779235 0.34900001
-0.11105298 0.078996725 0.34833336
-0.058655314 0.079240978 0.34833336
-0.05754146 0.078779235 0.34900001
-0.11037121 0.080871567 0.34850001
-0.10947903 0.081855774 0.34800002
-0.060311932 0.081488855 0.34800002
-0.059338521 0.080929317 0.34875
-0.10853346 0.083076246 0.34850001
-0.060765505 0.083075717 0.34850001
-0.059749298 0.082458958 0.34900001
-0.061120346 0.084895559 0.34842861
-0.062741816 0.087239116 0.34825003
-0.061728764 0.086996652 0.34875003
-0.063062549 0.089034259 0.34833336
-0.064714953 0.091395654 0.34800002
-0.063466333 0.091059983 0.34840003
-0.10214065 0.093597166 0.34800002
-0.066182628 0.093230247 0.34800002
-0.065114886 0.092840731 0.34883332
-0.063429028 0.092394225 0.34900001
-0.10243416 0.094970033 0.34900001
-0.10140681 0.095064841 0.34800002
-0.066979863 0.095033243 0.34833336
-0.10243416 0.096441925 0.34900001
-0.10135647 0.096962057 0.34866667
-0.068628758 0.097021744 0.34800002
-0.067476727 0.096809901 0.34900001
-0.10096227 0.098281793 0.34900001
-0.099939138 0.099467866 0.34800002
-0.069099933 0.098932154 0.34837502
-0.067844704 0.098281793 0.34900001
-0.099939138 0.10056862 0.34800002
-0.070813134 0.1014927 0.34840003
-0.069372348 0.10088393 0.34866667
-0.072420247 0.10313705 0.34800002
-0.071279123 0.10294279 0.34900004
-0.074254841 0.10533857 0.34800002
-0.072912239 0.10478508 0.3486
-0.071524434 0.10416936 0.34900001
-0.11449371 0.065537661 0.35100001
-0.11301338 0.065537661 0.35100001
-0.11116298 0.065537661 0.35100001
-0.10894249 0.065537661 0.35100001
-0.10709208 0.065537661 0.35100001
-0.10524167 0.065537661 0.35100001
-0.10302117 0.065537661 0.35100001
-0.10080069 0.065537661 0.35100001
-0.098950282 0.065167576 0.35100001
-0.097053409 0.065136462 0.35083339
-0.094879389 0.065537661 0.35100001
-0.093028978 0.065537661 0.35100001
-0.091178566 0.065537661 0.35100001
-0.088958077 0.065537661 0.35100001
-0.087107658 0.065537661 0.35100001
-0.085257255 0.065537661 0.35100001
-0.083036765 0.065537661 0.35100001
-0.081186354 0.065537661 0.35100001
-0.078981385 0.065212585 0.35025001
-0.077005617 0.06507422 0.35050005
-0.074823491 0.064858623 0.3506667
-0.07314112 0.065129571 0.35040003
-0.071058229 0.065413192 0.35033339
-0.06897366 0.065537661 0.35100001
-0.066753171 0.065537661 0.35100001
-0.064902753 0.065537661 0.35100001
-0.063052349 0.065537661 0.35100001
-0.061572023 0.065537661 0.35100001
-0.11494638 0.066535704 0.35080001
-0.11304162 0.066607371 0.35040003
-0.11084627 0.066458032 0.35000002
-0.10900114 0.066458032 0.35000002
-0.107156 0.066458032 0.35000002
-0.10494184 0.066089004 0.35000002
-0.10309669 0.066089004 0.35000002
-0.10125156 0.066458032 0.35000002
-0.099037394 0.066458032 0.35000002
-0.096823238 0.066458032 0.35000002
-0.094978094 0.066089004 0.35000002
-0.093132958 0.066089004 0.35000002
-0.090918802 0.066089004 0.35000002
-0.089073658 0.066089004 0.35000002
-0.087228522 0.066089004 0.35000002
-0.085014366 0.066089004 0.35000002
-0.082800195 0.066089004 0.35000002
-0.068603575 0.066277824 0.35100001
-0.066980086 0.066505238 0.35025004
-0.065086886 0.066089004 0.35000002
-0.062872723 0.066089004 0.35000002
-0.061027579 0.066089004 0.35000002
-0.11601266 0.068303168 0.35000002
-0.11306044 0.077897877 0.35000002
-0.056230221 0.076790795 0.35000002
-0.055650719 0.077010199 0.35100001
-0.11306044 0.078635931 0.35000002
-0.056621838 0.078918353 0.35060006
-0.11232238 0.08011204 0.35000002
-0.11158433 0.080850102 0.35000002
-0.058444384 0.081219129 0.35000002
-0.057509191 0.080841087 0.35060006
-0.1107929 0.082931504 0.35100001
-0.059087262 0.083103821 0.35016674
-0.057871208 0.082931504 0.35100001
-0.10894249 0.084781915 0.35100001
-0.10789406 0.084540375 0.35000002
-0.059172727 0.084889568 0.35057148
-0.10746216 0.086262241 0.35100001
-0.060592607 0.087083533 0.35033339
-0.059636012 0.086139366 0.35050002
-0.062380683 0.089460745 0.35000002
-0.061240871 0.089024447 0.35080004
-0.062500894 0.091286652 0.35040003
-0.061572023 0.090703219 0.35100001
-0.064348824 0.093397029 0.35000002
-0.062868394 0.093314856 0.35080004
-0.10361353 0.095377699 0.35050002
-0.065086812 0.095101193 0.35050002
-0.063792512 0.094404034 0.35100001
-0.10346572 0.096718274 0.35000002
-0.10198961 0.097087301 0.35000002
-0.066610001 0.097156644 0.35025004
-0.065548882 0.096486881 0.35050002
-0.10162058 0.099301465 0.35000002
-0.068039097 0.099301465 0.35000002
-0.066812441 0.098750792 0.35066673
-0.10125156 0.10040854 0.35000002
-0.068223611 0.10096208 0.35000002
-0.067493334 0.10106551 0.35100001
-0.070499286 0.10348378 0.35000002
-0.068874709 0.10301551 0.35050005
-0.11254076 0.063677952 0.35300002
-0.11102214 0.063581526 0.35350001
-0.10912713 0.063485101 0.35400003
-0.10688765 0.063858345 0.35400003
-0.10502143 0.063858345 0.354
-0.10310699 0.063455038 0.35383332
-0.10095059 0.063338295 0.3536
-0.099212117 0.063536428 0.35325
-0.096790768 0.063536428 0.35325003
-0.094985418 0.063338295 0.3536
-0.093362145 0.063798219 0.35366666
-0.091024749 0.063671723 0.354
-0.088971905 0.063485101 0.35400003
-0.087105677 0.063485101 0.354
-0.085239463 0.063485101 0.35400003
-0.082999997 0.063485101 0.35400003
-0.080573894 0.063671723 0.354
-0.078782864 0.063394904 0.35350001
-0.077051498 0.063536428 0.35325003
-0.072922379 0.063858345 0.354
-0.071056157 0.063858345 0.35400003
-0.068816692 0.063858345 0.35400003
-0.066950463 0.063858345 0.354
-0.06583073 0.063858345 0.354
-0.11294371 0.064758204 0.35240003
-0.11107462 0.064646251 0.35260004
-0.10903586 0.064702228 0.35250005
-0.10699879 0.064758204 0.35240003
-0.1049481 0.064702228 0.35250002
-0.1028957 0.064646251 0.35260004
-0.10093942 0.064685203 0.35200003
-0.098861061 0.064239845 0.35200006
-0.097005375 0.064239837 0.35200003
-0.095149696 0.064610973 0.35200006
-0.093054876 0.064702228 0.35250002
-0.090999104 0.064646251 0.35260004
-0.089164011 0.064758204 0.35240003
-0.087108254 0.064702228 0.35250002
-0.084878281 0.064702228 0.35250005
-0.082820192 0.064646251 0.35260004
-0.080989741 0.064758204 0.35240003
-0.079061776 0.064471029 0.35225001
-0.076964028 0.064239837 0.35200003
-0.075000361 0.064361505 0.35266671
-0.072524011 0.064608932 0.35266671
-0.070923604 0.064646251 0.35260004
-0.069099896 0.064758204 0.35240003
-0.067038447 0.064702228 0.35250002
-0.064975299 0.064646251 0.35260001
-0.063190475 0.064794712 0.35260001
-0.061178483 0.065538384 0.35300002
-0.056551538 0.080940954 0.35200003
-0.056877773 0.082964651 0.35271433
-0.055340242 0.082648933 0.35375002
-0.058036085 0.085023455 0.35200006
-0.056818601 0.084804311 0.35366666
-0.058833312 0.08720883 0.35233337
-0.057288196 0.086801492 0.35380003
-0.0602629 0.089105949 0.35200003
-0.058992147 0.089058928 0.35328573
-0.060891226 0.091215633 0.35257146
-0.059553623 0.090895355 0.35366666
-0.061283618 0.093240216 0.35300002
-0.059858814 0.092224948 0.354
-0.062948912 0.095303372 0.35250002
-0.061494559 0.095143668 0.35374999
-0.064640783 0.097455703 0.35240003
-0.062929451 0.096828386 0.3532857
-0.066201076 0.099497758 0.35200003
-0.064929985 0.099082991 0.35316667
-0.063342437 0.098445699 0.35400003
-0.066619232 0.10105429 0.35225001
-0.065244399 0.10099482 0.35371432
-0.067024253 0.10296319 0.35242859
-0.10849249 0.061716776 0.35600004
-0.10711619 0.061591651 0.35600001
-0.1054271 0.061779335 0.35600001
-0.1029873 0.061967008 0.35600004
-0.10111053 0.061967008 0.35600001
-0.099233769 0.061967008 0.35600004
-0.096981645 0.061967008 0.35600004
-0.095104873 0.061967008 0.35600001
-0.093228102 0.061967008 0.35600004
-0.090975985 0.061967008 0.35600004
-0.089099221 0.061967008 0.35600001
-0.087222449 0.061967008 0.35600004
-0.084970325 0.061967008 0.35600004
-0.083093561 0.061967008 0.35600001
-0.08159215 0.061967008 0.35600001
-0.10906109 0.062541537 0.35500002
-0.10723957 0.062945202 0.35516667
-0.10509352 0.062840983 0.35500002
-0.10307231 0.062541537 0.35500002
-0.10120081 0.062541537 0.35500002
-0.098860621 0.062876217 0.35520002
-0.097208291 0.062791072 0.35500002
-0.095212027 0.062541537 0.35500002
-0.092966244 0.062915847 0.35500002
-0.091219507 0.062791072 0.35500002
-0.089223236 0.062541537 0.35500002
-0.086977445 0.062541537 0.35500002
-0.085105941 0.062541537 0.35500002
-0.083234452 0.062541537 0.35500002
-0.081138372 0.062840983 0.35500002
-0.079491459 0.062541537 0.35500002
-0.077087909 0.063468419 0.35600001
-0.075211138 0.063468419 0.35600004
-0.072727323 0.063096821 0.35559997
-0.070982412 0.063003927 0.35549998
-0.069108285 0.063003935 0.35550004
-0.06685932 0.063003927 0.35550004
-0.065079853 0.06309934 0.35533333
-0.063950531 0.063468419 0.35600001
-0.074999869 0.064038739 0.35500002
-0.064893797 0.064038739 0.35500002
-0.063139945 0.064409234 0.3556667
-0.056284912 0.085748091 0.35500002
-0.054838698 0.085079767 0.35533336
-0.056534447 0.087245286 0.35500002
-0.055317402 0.08711569 0.35600001
-0.057113141 0.088992238 0.35550004
-0.055692755 0.088241749 0.35600001
-0.058717858 0.09117543 0.35500002
-0.057716507 0.090993352 0.35575002
-0.060027905 0.093608364 0.35500002
-0.058987446 0.092990555 0.35550001
-0.060444478 0.095172808 0.35525
-0.05944629 0.094622761 0.35600001
-0.061193604 0.097044826 0.35525
-0.062872581 0.099372581 0.35500002
-0.061097849 0.098601513 0.35600001
-0.064519495 0.10146865 0.35500002
-0.063139953 0.10103397 0.35566664
-0.061698411 0.10025306 0.35600001
-0.10628785 0.059882626 0.35700002
-0.10666426 0.06063544 0.35700002
-0.10478222 0.061011851 0.35700005
-0.10302565 0.061137319 0.35700005
-0.10101815 0.061388262 0.35700005
-0.098759703 0.061388262 0.35700005
-0.096877649 0.061388258 0.35700002
-0.094995618 0.061388262 0.35700005
-0.093113571 0.061388258 0.35700002
-0.09123154 0.061388262 0.35700005
-0.08897309 0.061388262 0.35700005
-0.087091051 0.061388258 0.35700002
-0.085209012 0.061388262 0.35700005
-0.083326966 0.061388258 0.35700002
-0.078810081 0.06289389 0.35700002
-0.076928042 0.06289389 0.35700005
-0.075046003 0.06289389 0.35700002
-0.073163956 0.062517479 0.35700002
-0.070905522 0.062141072 0.35700005
-0.069023475 0.062141072 0.35700002
-0.067141436 0.062141072 0.35700005
-0.064882986 0.062517479 0.35700002
-0.063377358 0.063646704 0.35700002
-0.054343566 0.087360397 0.35700002
-0.056602012 0.089995258 0.35700002
-0.055246945 0.089091875 0.35700002
-0.056978419 0.091124475 0.35700002
-0.058107644 0.093382925 0.35700002
-0.05735483 0.0922537 0.35700002
-0.058609523 0.094763085 0.35700005
-0.06036609 0.096770599 0.35700002
-0.059613276 0.096017778 0.35700002
-0.06061703 0.09953092 0.35700005
-0.061369848 0.10103655 0.35700005
-0.061871722 0.10204031 0.35700002
-0.10495985 0.059147589 0.35825002
-0.10328739 0.059271809 0.35900003
-0.069031641 0.059461068 0.35900003
-0.10507573 0.060050365 0.35800001
-0.10271698 0.060385883 0.35820004
-0.10086568 0.060452975 0.35859999
-0.098995589 0.060570415 0.35840005
-0.096906714 0.060511693 0.3585
-0.094816171 0.060452975 0.35859999
-0.092949443 0.060570415 0.35840002
-0.09103521 0.060452975 0.35859999
-0.089170597 0.060570415 0.35840005
-0.087078989 0.060511693 0.3585
-0.085275613 0.06060956 0.35833335
-0.083298042 0.061268728 0.3585
-0.081144184 0.061732169 0.35900006
-0.078873083 0.061732169 0.35900006
-0.076980487 0.061732169 0.35900003
-0.074898645 0.061542913 0.35900003
-0.072886668 0.061209168 0.35859999
-0.070951097 0.061141502 0.35850006
-0.068903454 0.060861196 0.35833335
-0.066952042 0.061182752 0.35800001
-0.065819658 0.061560214 0.35800001
-0.080540687 0.062315136 0.35800001
-0.079030834 0.062315136 0.35800001
-0.07714352 0.062315136 0.35800001
-0.074878752 0.062315136 0.35800001
-0.0733689 0.062315136 0.35800001
-0.054495789 0.08949241 0.35800001
-0.056383103 0.091379724 0.35800001
-0.055250715 0.090247341 0.35800001
-0.05683931 0.092830047 0.3585
-0.058270413 0.095531806 0.35800001
-0.057309069 0.094784752 0.35860005
-0.060535185 0.097796582 0.35800001
-0.059052467 0.096961021 0.35816669
-0.05767614 0.096555695 0.35900003
-0.059694897 0.098826796 0.35900006
-0.060535185 0.10119374 0.35800001
-0.059835922 0.10091086 0.35833335
-0.10294905 0.058508921 0.36060005
-0.10122797 0.059154231 0.36042863
-0.098967731 0.059328891 0.36050004
-0.096865796 0.059269328 0.36060002
-0.0949881 0.059388448 0.36040002
-0.093063764 0.05926932 0.36060005
-0.091188177 0.059388448 0.36040005
-0.089212723 0.059388448 0.36040005
-0.087443337 0.059626698 0.36000001
-0.083118737 0.059792332 0.36100003
-0.080834985 0.059792332 0.36100003
-0.078931853 0.059792329 0.36100003
-0.077028729 0.059792332 0.36100003
-0.075125605 0.059792329 0.36100003
-0.073222473 0.059792332 0.36100003
-0.071319349 0.059792329 0.36100003
-0.069983073 0.059626698 0.36000001
-0.085021861 0.060553581 0.36100003
-0.08296559 0.060821325 0.36033338
-0.080897242 0.06079014 0.36060005
-0.079028413 0.060908418 0.36040005
-0.076851271 0.060793366 0.36016673
-0.075044021 0.06063889 0.36000001
-0.073019646 0.060385846 0.36000001
-0.071501359 0.060385842 0.36000001
-0.055559374 0.091510653 0.36000001
-0.056318518 0.09340851 0.36000001
-0.055713706 0.092906728 0.36100003
-0.056396738 0.095059164 0.36050004
-0.055713706 0.094048604 0.36100003
-0.057140656 0.096932232 0.36040005
-0.058975514 0.09910208 0.36000001
-0.05774371 0.09886986 0.36100003
-0.10090625 0.057667881 0.36200005
-0.098797426 0.057391353 0.3626667
-0.096974909 0.057444446 0.36300001
-0.095061243 0.057827186 0.36300001
-0.093147576 0.057827182 0.36300001
-0.091999367 0.057827182 0.36300001
-0.10052456 0.058431238 0.36200002
-0.098997839 0.058431238 0.36200002
-0.09708944 0.058431238 0.36200005
-0.09479937 0.058431238 0.36200005
-0.092890963 0.058431238 0.36200002
-0.090982571 0.058431238 0.36200005
-0.088554762 0.05935812 0.36300001
-0.08690396 0.059658036 0.36250001
-0.08499293 0.059403233 0.36250001
-0.08287517 0.058833431 0.36260003
-0.080995373 0.058953822 0.36240003
-0.078877613 0.058893628 0.36250004
-0.076966584 0.058893625 0.36250001
-0.075187936 0.058953822 0.36240003
-0.072795063 0.059303612 0.3626667
-0.096354686 0.055836733 0.36500001
-0.096666381 0.056643225 0.36400002
-0.095069744 0.056912661 0.36450002
-0.093787968 0.057218909 0.36400002
-0.082658097 0.057986487 0.36400002
-0.081025772 0.057620257 0.36460003
-0.079137109 0.057742335 0.36440006
-0.077006906 0.0576813 0.36450005
-0.075085327 0.057681296 0.36450005
-0.09096688 0.058145791 0.36500001
-0.089126579 0.058510758 0.3644
-0.086999118 0.058449924 0.36450005
-0.084943205 0.058297858 0.36475003
-0.074316174 0.058449928 0.36450002
-0.073029473 0.058543038 0.36460003
-0.094560944 0.056916591 0.36700001
-0.093066119 0.057163276 0.36660001
-0.09116102 0.057286616 0.36640003
-0.089022182 0.057224944 0.36650002
-0.086881645 0.057163276 0.36660004
-0.084979922 0.057286616 0.36640003
-0.083225809 0.057224948 0.36650002
-0.081256717 0.056813203 0.36633337
-0.079011761 0.056864899 0.36666667
-0.076879002 0.056555234 0.36633337
-0.092490569 0.055519652 0.36800003
-0.090991139 0.055475987 0.36900002
-0.089103669 0.055418771 0.36939999
-0.086906001 0.055670518 0.36900002
-0.084896758 0.055418771 0.36939999
-0.082916319 0.055292904 0.36960003
-0.081001937 0.055418778 0.36940002
-0.09287858 0.056295663 0.36800003
-0.090938553 0.056295663 0.36800003
-0.088998519 0.056295663 0.36800003
-0.087058499 0.056295663 0.36800003
-0.085118458 0.056295663 0.36800003
-0.083178431 0.056295663 0.36800003
-0.080850393 0.056295663 0.36800003
-0.078910366 0.056295663 0.36800003
-0.077746347 0.056295663 0.36800003
-0.090115212 0.054407582 0.37100002
-0.088811323 0.054668363 0.37100002
-0.086985871 0.055189919 0.37100002
-0.083074175 0.054407582 0.37100002
-0.08111833 0.054407582 0.37100002
-0.088004775 0.054554231 0.37200001
-0.086828098 0.054554231 0.37200001
-0.085259214 0.054554231 0.37200001
