# .PCD v0.7 - Point Cloud Data file format
VERSION 0.7
FIELDS x y z
SIZE 4 4 4
TYPE F F F
COUNT 1 1 1
WIDTH 1279
HEIGHT 1
VIEWPOINT 0 0 0 1 0 0 0
POINTS 1279
DATA ascii
-0.0088859182 0.017928433 0.43500003
-0.010261863 0.019304378 0.43500003
-0.0088859182 0.019304378 0.43500003
-0.0075099734 0.019304378 0.43500003
-0.0088859182 0.020680323 0.43500003
-0.010769801 0.01524632 0.43700001
-0.0089267734 0.01524632 0.43700001
-0.0070756404 0.014768119 0.43650001
-0.0052374555 0.014776841 0.43675002
-0.002936932 0.014785564 0.43700001
-0.0010939041 0.01524632 0.43700001
-0.012503571 0.017249344 0.43640003
-0.010745156 0.017050242 0.43600005
-0.0089063458 0.016590539 0.43600002
-0.0070675351 0.017050242 0.43600005
-0.0052287243 0.017050242 0.43600005
-0.0030647928 0.016809298 0.43657148
-0.00063314714 0.016628591 0.43700001
-0.012583965 0.019348755 0.43600002
-0.011204858 0.019348755 0.43600002
-0.0066078324 0.019348755 0.43600002
-0.0052287243 0.019348755 0.43600002
-0.0028195351 0.019036472 0.43675002
-0.0007252986 0.018748073 0.43700001
-0.012598924 0.021211864 0.43650001
-0.010745156 0.021187566 0.43600002
-0.0089063458 0.021647269 0.43600002
-0.0070675351 0.021187566 0.43600002
-0.0052287243 0.021187566 0.43600002
-0.0029354603 0.021228239 0.43683335
-0.012152072 0.022618432 0.43700001
-0.010751581 0.023039844 0.43625
-0.0089063458 0.023026377 0.43600002
-0.0070675351 0.023026377 0.43600002
-0.0052374555 0.023066249 0.43675002
-0.0035512745 0.022925604 0.43700001
-0.010309044 0.024461461 0.43700001
-0.0089165587 0.02489423 0.43650001
-0.007079429 0.024908224 0.43675002
-0.005240717 0.024461461 0.43700001
-0.010356225 0.013464634 0.43900001
-0.0089676278 0.013464634 0.43900001
-0.0071085868 0.013449298 0.43850002
-0.0052527096 0.013433963 0.43800002
-0.0029436527 0.013433963 0.43800005
-0.00063459598 0.013433963 0.43800002
0.0012140337 0.012986433 0.43850002
0.0029125921 0.013156058 0.43900001
0.0044554779 0.013464634 0.43900001
-0.014059151 0.015316097 0.43900001
-0.012656122 0.014835788 0.43850002
-0.010794446 0.014357585 0.43800002
-0.0089472001 0.014357585 0.43800002
-0.0004806589 0.01466546 0.43800005
0.0012126494 0.014819397 0.43800002
0.0030619048 0.014827592 0.43825001
0.0049183434 0.014853232 0.43900001
0.0063069407 0.015316097 0.43900001
-0.014027125 0.016666643 0.43800002
-0.013103503 0.01620483 0.43800002
0.0012126494 0.016666641 0.43800002
0.0030619048 0.016676418 0.43825001
0.0049183434 0.016704693 0.43900001
0.0063069407 0.016241828 0.43900001
-0.014027125 0.018975701 0.43800005
-0.00017278464 0.019899324 0.43800002
0.0012126493 0.018975701 0.43800002
0.0030649034 0.019004935 0.4386667
0.0048257704 0.018833876 0.43900004
-0.014059151 0.020870486 0.43900001
-0.00063459598 0.021284757 0.43800002
0.0012149895 0.021321468 0.43875
0.0029125921 0.021179065 0.43900001
-0.0128056 0.023303896 0.43833336
-0.0023279046 0.02328594 0.43800005
-0.00063541904 0.023171876 0.43875003
0.001215418 0.02272195 0.43900001
-0.012193783 0.025008291 0.43850002
-0.010948382 0.025133185 0.43800005
-0.0052527096 0.02544106 0.43800002
-0.0029463102 0.025007939 0.43850002
-0.0010989106 0.024573412 0.43900001
-0.012207688 0.026887741 0.43900001
-0.010813193 0.026872693 0.43875
-0.0089525701 0.026842069 0.43825001
-0.0070999553 0.026826493 0.43800002
-0.0052614403 0.026872693 0.43875003
-0.003567528 0.026733454 0.43900001
-0.010356225 0.028276337 0.43900001
-0.0089676278 0.028276337 0.43900001
-0.0072704535 0.028584916 0.43900001
-0.0057275677 0.028276337 0.43900001
-0.00017396809 0.011666079 0.44100001
0.0012209552 0.011666079 0.44100001
0.003080853 0.011666079 0.44100001
0.004940751 0.011666079 0.44100001
0.0068006488 0.011666079 0.44100001
0.0086605456 0.011666079 0.44100001
0.010055469 0.011666079 0.44100001
-0.012554045 0.013195547 0.44033337
-0.011014806 0.012895788 0.44066668
-0.0090084821 0.012596028 0.44100001
-0.0071410066 0.012581747 0.44050002
-0.0052766944 0.012567465 0.44000003
-0.002957094 0.012567466 0.44000003
-0.00063749368 0.012567465 0.44000003
0.0035377869 0.012567465 0.44000003
0.0050841877 0.012876745 0.44000003
0.006785227 0.013031386 0.44000003
0.0086559001 0.013053335 0.44075
0.010799429 0.013153997 0.44100004
-0.014743167 0.014765909 0.44100004
0.0069398675 0.014732426 0.44000003
0.0086409077 0.014887066 0.44000003
0.010985419 0.014920901 0.44100004
0.012845316 0.014455926 0.44100001
-0.015019015 0.016742747 0.44000003
0.0069398675 0.016897388 0.44000003
0.0086409077 0.016742747 0.44000003
0.010985419 0.016780799 0.44100004
-0.015019015 0.018598426 0.44000003
0.0053934674 0.019990185 0.44000003
0.006692443 0.018876778 0.44000003
0.0086559001 0.018630391 0.44075003
0.010365453 0.018485704 0.44100004
-0.014572163 0.020940743 0.44050002
0.0035377869 0.021845866 0.44000003
0.0049326117 0.021394357 0.44025004
0.0068006488 0.020965567 0.44100001
0.0086605456 0.020035619 0.44100001
0.0012181866 0.023701547 0.44000003
0.003075877 0.023251094 0.44025001
0.0047857594 0.02313545 0.44100004
-0.013163336 0.025093306 0.44000003
-0.00048285368 0.025247946 0.44000003
0.0012195709 0.025122348 0.44050002
0.0029258616 0.024995346 0.44100004
-0.013193252 0.027010234 0.44100001
-0.002338534 0.027103629 0.44000003
-0.00063831668 0.026995186 0.44075
0.00075598079 0.02654526 0.44100001
-0.012249399 0.028837927 0.44050002
-0.010998376 0.028959308 0.44000003
-0.0089880545 0.029268587 0.44000003
-0.0066684545 0.029268587 0.44000003
-0.0051220544 0.028959308 0.44000003
-0.0029597515 0.028837575 0.44050002
-0.0011039169 0.028405158 0.44100001
-0.012263304 0.03073003 0.44100001
-0.010856057 0.030695716 0.44050002
-0.0089880545 0.030660348 0.44000003
-0.0071361638 0.030678032 0.44025004
-0.0052826907 0.030695716 0.44050002
-0.0035837805 0.030575037 0.44100004
-0.012263304 0.032124951 0.44100001
-0.010713389 0.032434937 0.44100004
-0.0090084821 0.032589927 0.44100001
-0.0071485844 0.032589927 0.44100001
-0.005753661 0.032124951 0.44100001
0.0068314904 0.0098506538 0.44300002
0.0086998232 0.0098506538 0.44300002
0.011035239 0.0098506538 0.44300002
0.013370655 0.0098506538 0.44300002
0.015238988 0.0098506538 0.44300002
-0.014187251 0.011718987 0.44300002
-0.012786001 0.011718987 0.44300002
-0.010917669 0.011718987 0.44300002
-0.0090289097 0.011692533 0.44200003
-0.007164794 0.011692533 0.44200003
-0.0053006792 0.011692533 0.44200003
-0.0029705353 0.011692534 0.44200003
-0.00064058864 0.011238677 0.44250003
0.0012264925 0.010784821 0.44300002
0.0030908049 0.010772648 0.44250003
0.0049519544 0.010760476 0.44200003
0.0068160696 0.010760476 0.44200003
0.0086801853 0.010760476 0.44200003
0.011196741 0.011133298 0.442
0.013340472 0.011226505 0.44200003
0.015230652 0.01124529 0.44275004
0.017107319 0.011251904 0.44300002
0.018819958 0.011407599 0.44300002
-0.014465912 0.013245963 0.44200003
-0.013223168 0.012624591 0.44200003
0.011942387 0.012624591 0.44200003
0.013340473 0.013090619 0.44200003
0.015204587 0.01309062 0.44200003
0.017107319 0.013120236 0.44300002
0.018975653 0.013120236 0.44300002
-0.016055584 0.01498857 0.44300002
0.013495816 0.015110078 0.44200003
0.015204588 0.014954735 0.44200003
0.017107319 0.01498857 0.44300002
0.01850857 0.01498857 0.44300002
-0.016055584 0.016856901 0.44300002
0.013340472 0.016818849 0.44200003
0.015213451 0.016828626 0.44225004
0.017107319 0.016856901 0.44300002
0.01850857 0.016389819 0.44300002
-0.016055584 0.018258151 0.44300002
0.011631701 0.018838307 0.44200003
0.013348281 0.018693795 0.44225004
0.015238987 0.018725233 0.44300002
0.016640237 0.018258151 0.44300002
0.0072820983 0.021945165 0.44200003
0.0086801853 0.021479135 0.44200003
0.011024402 0.021040222 0.44255558
0.013214961 0.020437872 0.44300002
-0.014171239 0.023370186 0.44250003
0.005417983 0.02380928 0.44200003
0.0068201884 0.023356719 0.44225004
0.0085441284 0.023240371 0.44300002
0.010101072 0.022928981 0.44300002
0.0035538678 0.025673395 0.44200003
0.0049550189 0.025221888 0.44225004
0.0066757961 0.025108702 0.44300002
0.0013790668 0.027226826 0.44200003
0.0030898491 0.027087057 0.44225004
0.0048074634 0.026977036 0.44300002
-0.013223168 0.028935596 0.44200003
-0.00048504845 0.029090941 0.44200003
0.0012260639 0.02898496 0.44275001
0.003094825 0.02853398 0.44300002
-0.013253085 0.030869395 0.44300002
-0.0023491636 0.030955058 0.44200003
-0.00064121443 0.030852238 0.44275004
0.00075940927 0.030402312 0.44300002
-0.012291111 0.033129856 0.44200003
-0.011359054 0.033129856 0.44200003
-0.0051453365 0.032819174 0.44200003
-0.0031623233 0.032629739 0.44280005
-0.012305014 0.034567527 0.44250003
-0.01089945 0.034547735 0.44225001
-0.0090289097 0.034527943 0.44200003
-0.007164794 0.034527943 0.44200003
-0.0053094104 0.034586795 0.44275004
-0.0039114226 0.034138978 0.44300002
-0.012318918 0.036007311 0.44300002
-0.010917669 0.036474396 0.44300002
-0.0090493374 0.036474396 0.44300002
-0.0071810046 0.036474392 0.44300002
-0.0057797553 0.036007311 0.44300002
0.030860312 0.007095885 0.44600001
-0.014753575 0.0099173626 0.44600001
-0.012858158 0.0094359983 0.44550002
-0.010979282 0.0094359983 0.44550002
-0.0091004055 0.0094359983 0.44550002
-0.0072215293 0.0094359983 0.44550002
-0.005342653 0.0094359983 0.44550002
-0.0029940575 0.0094359983 0.44549999
-0.00064546237 0.0094359983 0.44550002
0.0012334139 0.0094359983 0.44550002
0.0031102803 0.0094304383 0.44525
0.0049825003 0.0094198473 0.44475001
0.006870043 0.0084965602 0.44550002
0.0087489188 0.0084965602 0.44550002
0.010622094 0.0084915273 0.44525
0.012976391 0.0084965602 0.44549999
0.015324986 0.0084965602 0.44550002
0.017184556 0.0089553362 0.44500002
0.019061323 0.0089553362 0.44500002
0.020938089 0.0089553362 0.44500005
0.022814859 0.0089553362 0.44500002
0.024710122 0.0089627486 0.44533333
0.02693521 0.0090785446 0.44524997
0.029210307 0.0088304104 0.44542861
0.031283729 0.0089627486 0.44533336
0.032667886 0.0094259344 0.44500002
-0.016465731 0.011476032 0.44566667
-0.014854839 0.011129371 0.44433337
-0.012814865 0.010809164 0.44400004
-0.010942316 0.010809164 0.44400004
-0.009069765 0.010809164 0.44400004
-0.0071972143 0.010809164 0.44400004
-0.0053246645 0.010809164 0.44400004
-0.0029839769 0.010809164 0.44400007
-0.0011114266 0.010809164 0.44400004
0.019486625 0.010809164 0.44400004
0.020891037 0.011277302 0.44400004
0.022763586 0.011277302 0.44400004
0.024691626 0.011302702 0.44500002
0.027037583 0.011302701 0.44500002
0.029383544 0.011302702 0.44500002
0.031260312 0.011302702 0.44500002
-0.016598318 0.013179469 0.44500002
-0.015155553 0.012681714 0.44400004
0.020891037 0.013149852 0.44400004
0.022776667 0.01315752 0.44425005
0.024691626 0.013179468 0.44500002
0.027037587 0.013179469 0.44500002
0.029383544 0.013179469 0.44500002
0.031260312 0.013179469 0.44500002
-0.017104806 0.015090071 0.44600001
0.019486625 0.015022403 0.44400004
0.020891037 0.015022403 0.44400004
0.022802304 0.015048042 0.44475004
0.024691626 0.015056237 0.44500002
0.026873788 0.014976354 0.4454
0.029154008 0.015177565 0.44580004
0.031295434 0.015073681 0.44550002
-0.017104806 0.016971055 0.44600001
0.019174533 0.017051 0.44400007
0.020926591 0.016923755 0.44475004
0.022827938 0.01694278 0.44525
0.024747111 0.016971055 0.44600001
0.026628096 0.01650081 0.44600001
0.028979329 0.016500812 0.44600004
-0.016091827 0.019235641 0.44400004
0.017301982 0.018923549 0.44400007
0.019050878 0.018799469 0.44475004
0.020961616 0.018831434 0.44550002
0.022709377 0.018695293 0.44600004
-0.015155553 0.02110819 0.44400004
0.013868974 0.02110819 0.44400004
0.015273387 0.020640053 0.44400004
0.017175162 0.020675182 0.44475001
0.019093711 0.020721668 0.44575
0.020514894 0.02026278 0.44600001
0.0091875987 0.023917016 0.44400004
0.011247403 0.023542507 0.44400007
0.013416103 0.023007324 0.44450003
0.015207279 0.022834893 0.44480005
0.01721378 0.022601597 0.44575
0.01863391 0.022143764 0.44600001
-0.014219278 0.025321428 0.44400004
0.0073150489 0.025789564 0.44400004
0.0087246345 0.025335949 0.44425002
0.010610166 0.025364464 0.44475004
0.012981596 0.025416832 0.44566673
0.015498934 0.024651743 0.44600004
0.016752925 0.024024749 0.44600001
-0.014267316 0.027286377 0.44550002
0.0054424987 0.027662115 0.44400004
0.00685103 0.027209552 0.44425005
0.0087442733 0.027270801 0.44525003
0.010639723 0.027316473 0.44600001
0.012520708 0.026846228 0.44600001
0.0031018113 0.029534666 0.44400004
0.004977426 0.029083157 0.44425002
0.0068700425 0.029165253 0.44550002
0.0087587377 0.028727213 0.44600001
0.0013853069 0.031095123 0.44400007
0.0031073145 0.030991606 0.44475004
0.0049942308 0.031061288 0.44575
0.0064075068 0.030608198 0.44600001
-0.013283003 0.032811627 0.44400004
-0.0020477017 0.033279765 0.44400004
-0.00064338767 0.032830369 0.44425002
0.0012316011 0.03286732 0.44475004
0.0031143003 0.032941215 0.44575003
0.0045265215 0.032489181 0.44600001
-0.013283003 0.034684181 0.44400004
-0.0027976444 0.034793641 0.44420004
-0.00064483657 0.034782089 0.44525003
0.0010780495 0.034683667 0.44600004
-0.012814865 0.037024867 0.44400004
-0.010942316 0.03796114 0.44400004
-0.009069765 0.03796114 0.44400004
-0.0071972143 0.03796114 0.44400004
-0.0053246645 0.037024867 0.44400004
-0.0029899944 0.036639415 0.44500002
-0.0011164331 0.036251154 0.44600001
-0.012851207 0.039006922 0.44525
-0.010942316 0.039365552 0.44400004
-0.009069765 0.039365552 0.44400004
-0.0071972143 0.039365552 0.44400004
-0.0053333947 0.03896312 0.44475004
-0.0036214697 0.038417138 0.44566667
-0.01238844 0.041377947 0.44550002
-0.010979283 0.041377947 0.44550002
-0.0090853497 0.041308027 0.44475004
-0.007217213 0.041354466 0.44525
-0.0053453878 0.040930659 0.44575
-0.0039379103 0.040013123 0.44600001
-0.0086403731 0.042834599 0.44600001
-0.0072296346 0.042834599 0.44600001
0.024802599 0.0071117948 0.44700003
0.026687801 0.0071117948 0.44700003
0.029044304 0.0071117948 0.44700003
0.030929506 0.0061691939 0.44700003
-0.016200555 0.0099395989 0.44700003
-0.014786654 0.008996997 0.44700003
-0.01101625 0.0080543961 0.44700003
-0.0091310469 0.0080543961 0.44700003
-0.0072458442 0.0080543961 0.44700003
-0.0053606415 0.0080543961 0.44700003
-0.0030041388 0.0080543961 0.44700003
-0.00064763561 0.0080543961 0.44700003
0.0012375668 0.0080543961 0.44700003
0.0031227693 0.0080543961 0.44700003
0.005007972 0.0080543961 0.44700003
-0.017143156 0.0108822 0.44700003
0.026687801 0.017480409 0.44700003
0.029044304 0.017480409 0.44700003
0.031243708 0.01685201 0.44700003
0.023388697 0.019365611 0.44700003
0.024645498 0.018737212 0.44700003
0.0262165 0.01842301 0.44700003
-0.016200555 0.020308211 0.44700003
0.021189295 0.020936614 0.44700003
0.022446096 0.020308211 0.44700003
-0.015257955 0.022193415 0.44700003
0.019304091 0.022821818 0.44700003
0.020560892 0.022193415 0.44700003
0.015376585 0.025963821 0.44700003
0.017261788 0.025021218 0.44700003
0.018675691 0.024078617 0.44700003
0.013255732 0.027613372 0.44700003
0.014905284 0.026906421 0.44700003
-0.014315354 0.028791623 0.44700003
0.0087783765 0.029734224 0.44700003
0.010506479 0.029105823 0.44700003
0.012077481 0.028791623 0.44700003
0.0070502749 0.031305224 0.44700003
0.0083070761 0.030676825 0.44700003
0.0051650722 0.033190429 0.44700003
0.0064218733 0.032562029 0.44700003
0.0017088675 0.035389833 0.44700003
0.0029656691 0.034761433 0.44700003
0.0045366711 0.03444723 0.44700003
-0.0004905354 0.036960836 0.44700003
0.0012375668 0.036332432 0.44700003
-0.002375738 0.038846038 0.44700003
-0.0011189362 0.038217634 0.44700003
-0.013372753 0.040102839 0.44700003
-0.0048893411 0.041988041 0.44700003
-0.0034754395 0.040574141 0.44700003
-0.012430151 0.04293064 0.44700003
-0.01101625 0.04293064 0.44700003
-0.0096023474 0.04293064 0.44700003
-0.0077171451 0.043873243 0.44700003
-0.0058319424 0.04293064 0.44700003
0.029174255 0.005249978 0.44900003
0.03005399 0.0052382853 0.44800001
-0.012959177 0.0071436153 0.44900003
-0.011065539 0.0071436153 0.44900003
-0.0091719013 0.0071436153 0.44900003
-0.0072620539 0.007127705 0.44800001
-0.0053786305 0.0066622514 0.44850004
-0.0030142197 0.006662251 0.44850004
-0.00064980885 0.0066622514 0.44850004
0.0012417197 0.0066622514 0.44850004
0.0031332485 0.0066622514 0.44850004
0.0050247768 0.0066622514 0.44850004
0.006916306 0.0066622514 0.44850004
0.0086467583 0.0068174023 0.44833335
0.010687435 0.007127705 0.44800001
0.013049209 0.007127705 0.44800004
0.015410985 0.007127705 0.44800001
0.017319188 0.0071356604 0.44850004
0.019189823 0.007127705 0.44800001
0.021079246 0.007127705 0.44800001
0.022968665 0.007127705 0.44800001
0.02491357 0.0061967969 0.44900003
0.026807208 0.0061967969 0.44900003
0.028636925 0.0061829952 0.44800001
0.03005399 0.0061829952 0.44800001
-0.01816668 0.0099840714 0.44900003
-0.016727803 0.0090266615 0.44850001
-0.014819734 0.0080724154 0.44800001
-0.012930314 0.0080724154 0.44800001
-0.01814645 0.011391073 0.44850004
-0.01812622 0.01326832 0.44800001
-0.01816668 0.015191574 0.44900003
0.031943411 0.017519515 0.44800001
0.032924823 0.017066713 0.44850004
-0.017181508 0.018464224 0.44800001
0.025330439 0.019408934 0.44800001
0.026904956 0.019094031 0.44800004
0.028636925 0.018936578 0.44800001
0.030823594 0.018850772 0.44819999
0.032488119 0.018978849 0.44900003
0.023126116 0.020983454 0.44800004
0.024885828 0.02084977 0.44850001
0.026649406 0.020714683 0.44900006
0.028700845 0.020399077 0.44900003
0.030594483 0.020399077 0.44900003
-0.015292089 0.023187775 0.44800001
0.021252733 0.022890124 0.44833335
0.02300738 0.022753712 0.44875002
0.02444016 0.022292715 0.44900003
-0.015326222 0.024186352 0.44900003
0.019361906 0.02478095 0.44833335
0.020968493 0.024501961 0.44900006
0.015568437 0.02759642 0.44800004
0.017418256 0.027192516 0.44860002
0.019074855 0.026395597 0.44900006
-0.014347379 0.029800745 0.44800001
0.01115979 0.029800745 0.44800001
0.013049209 0.029328389 0.44800001
0.014963638 0.029377751 0.44875002
0.016865613 0.028920446 0.44900003
-0.014363391 0.031253178 0.44850004
0.0089554666 0.031375263 0.44800004
0.01070559 0.031270333 0.44875002
0.012447125 0.031129688 0.44900006
0.014025156 0.030814083 0.44900003
-0.014379404 0.033181131 0.44900003
0.0070715393 0.033289667 0.44833335
0.0086536556 0.032999046 0.44866669
0.010237882 0.032707721 0.44900003
-0.014347379 0.034996651 0.44800001
0.0036021103 0.035469003 0.44800001
0.0051766271 0.035154104 0.44800004
0.0067614242 0.034891278 0.44866669
-0.014347379 0.03688607 0.44800001
0.0012403354 0.037358426 0.44800001
0.0031317654 0.036906917 0.44825003
0.0048725759 0.036810603 0.44900006
-0.00049163285 0.038932942 0.44800004
0.0012426756 0.038840666 0.44875002
0.0029789384 0.038704239 0.44900006
-0.013402669 0.041137263 0.44800001
-0.0023825902 0.040852968 0.44833335
-0.00080833648 0.040597878 0.44900006
0.00076969469 0.040282268 0.44900003
-0.012945272 0.04307365 0.44850004
-0.011040894 0.043971393 0.44800001
-0.0091514736 0.043971393 0.44800001
-0.0067896992 0.043971393 0.44800001
-0.0053726342 0.043499038 0.44800001
-0.0036458492 0.042460203 0.44866669
-0.012485767 0.045016363 0.44900003
-0.011065539 0.045016363 0.44900003
-0.0091719013 0.045016363 0.44900003
-0.007278264 0.045016363 0.44900003
-0.0053846268 0.044542953 0.44900003
-0.0068351659 0.0052733631 0.45100003
-0.0054086121 0.0052733631 0.45100003
-0.0030310217 0.0052733636 0.45100006
-0.00065343105 0.0052733631 0.45100003
0.0012486413 0.0052733631 0.45100003
0.0031507136 0.0052733631 0.45100003
0.0050527854 0.0052733631 0.45100003
0.0069548581 0.0052733631 0.45100003
0.0088569308 0.0052733631 0.45100003
0.010283485 0.0052733631 0.45100003
0.023597989 0.0052733631 0.45100003
0.025024544 0.0052733631 0.45100003
0.026896238 0.0052675167 0.45050001
0.028627571 0.0046322467 0.45033336
-0.016802924 0.0071674804 0.45050001
-0.014902432 0.0066919625 0.45050001
-0.0130169 0.006224399 0.45100003
-0.011114828 0.006224399 0.45100003
-0.0091923289 0.0062105982 0.45000002
-0.0072944737 0.0062105982 0.45000002
0.0093117561 0.0062105982 0.45000002
0.010735147 0.0062105982 0.45000002
0.012633001 0.0062105982 0.45000002
0.01500532 0.0062105982 0.45000002
0.017377639 0.0062105982 0.45000002
0.019275494 0.0062105982 0.45000002
0.021173349 0.0062105982 0.45000002
0.023071203 0.0062105982 0.45000002
-0.018551126 0.0087537868 0.45066667
-0.017258212 0.0081084529 0.45000002
-0.019198637 0.010979581 0.45100006
-0.019198636 0.01335717 0.45100003
-0.018227369 0.017142817 0.45050001
0.033983868 0.017597727 0.45000002
-0.017296564 0.019538905 0.45100003
0.033034943 0.019495582 0.45000002
0.034059387 0.019063387 0.45100003
-0.016309284 0.021393437 0.45000002
0.027341377 0.021393437 0.45000002
0.028764768 0.021393437 0.45000002
0.030662622 0.021393437 0.45000002
0.032597184 0.020942217 0.45050004
0.025127213 0.022974983 0.45000002
0.026896764 0.022842707 0.45050001
0.028828688 0.022392014 0.45100003
0.030730762 0.022392014 0.45100003
0.032157317 0.022392014 0.45100003
-0.015360357 0.025189146 0.45000002
0.021647813 0.025189146 0.45000002
0.023084285 0.024728676 0.45025003
0.024866041 0.024611099 0.45100006
0.026451098 0.024294086 0.45100003
-0.015377425 0.026642635 0.45050001
0.019749958 0.027087001 0.45000002
0.021196874 0.026642635 0.45050001
0.022646954 0.026196159 0.45100003
0.015954249 0.029933784 0.45000002
0.017377639 0.02945932 0.45000002
0.019307882 0.028558174 0.45075005
0.020744881 0.028098231 0.45100003
0.013107466 0.031831637 0.45000002
0.015202197 0.031466212 0.45020005
0.017416256 0.03095134 0.45100003
0.018842809 0.030000303 0.45100003
0.0093117561 0.033729494 0.45000002
0.010893302 0.033413187 0.45000002
0.012647038 0.033292506 0.45050004
0.014800908 0.033091173 0.45100003
0.0074139009 0.035627346 0.45000002
0.0088424664 0.035172679 0.45025003
0.010753303 0.035211734 0.45074999
0.012661075 0.034755483 0.45100003
0.0055160462 0.037525203 0.45000002
0.006943556 0.037071586 0.45025003
0.0086984253 0.036974572 0.45100006
-0.014411429 0.038474131 0.45000002
0.0036181912 0.039423056 0.45000002
0.005044647 0.038970493 0.45025003
0.0067963521 0.038876638 0.45100006
-0.00017751846 0.041320913 0.45000002
0.0014040273 0.041004606 0.45000002
0.0031472207 0.040892363 0.45050001
0.0048942799 0.040778711 0.45100006
-0.013492418 0.043314811 0.45100003
-0.0023916825 0.042902455 0.45000002
-0.0006527066 0.042792324 0.45050004
0.0010901353 0.042680785 0.45100006
0.0026751955 0.042363774 0.45100003
-0.0049221553 0.045116622 0.45000002
-0.0032181188 0.044607002 0.45060006
-0.0011289491 0.044265844 0.45100003
-0.012527479 0.04659225 0.45050001
-0.01099529 0.04682469 0.45000002
-0.0092872223 0.046824694 0.45000002
-0.0072944737 0.046540014 0.45000002
-0.0054053506 0.046617847 0.45075005
-0.0039820578 0.046167918 0.45100003
-0.012541383 0.049021028 0.45100006
-0.011209932 0.04921123 0.45100003
-0.0091176527 0.049211234 0.45100003
-0.0074057877 0.048830818 0.45100003
-0.00588413 0.048069991 0.45100003
0.028478906 0.0033862412 0.45300001
-0.016895641 0.0052967486 0.45300001
-0.014985133 0.0052967486 0.45300001
-0.013074625 0.0052967486 0.45300001
-0.011152323 0.0052909022 0.45250002
-0.0092331832 0.0052850558 0.45200002
-0.0073344717 0.0048132753 0.45250002
-0.0054325964 0.0043414948 0.45300001
-0.0030444625 0.0043414952 0.45300001
-0.00065632875 0.0043414948 0.45300001
0.0012541785 0.0043414948 0.45300001
0.0031606657 0.0043367026 0.45250002
0.005069064 0.0043367026 0.45250002
0.0069857002 0.0043414948 0.45300001
0.0088962074 0.0043414948 0.45300001
0.01095762 0.004656015 0.4526667
0.012703184 0.0048132753 0.45250002
0.014611584 0.0048132753 0.45250005
0.016997082 0.0048132753 0.45250005
0.019382579 0.0048132753 0.45250002
0.021290978 0.0048132753 0.45250002
0.023049064 0.004656015 0.4526667
0.025135517 0.0043414948 0.45300001
0.026986321 0.004331911 0.45200002
-0.018633451 0.0068835346 0.4526667
-0.016858343 0.0062382007 0.45200002
-0.020239027 0.0086401356 0.45300001
-0.019241204 0.0081444904 0.45200002
-0.020239029 0.01102827 0.45300001
-0.019262489 0.01531052 0.45250002
-0.017373268 0.020580806 0.45300001
0.03413491 0.021011947 0.45200002
-0.016399892 0.022944115 0.45250002
0.028892612 0.023394808 0.45200002
0.030798901 0.023394808 0.45200002
0.032888521 0.023094347 0.45233339
0.034210429 0.02296894 0.45300001
-0.016418014 0.024879448 0.45300001
0.025556605 0.025301099 0.45200002
0.027165432 0.025002044 0.45233339
0.028776368 0.024702284 0.4526667
0.030389413 0.024401821 0.45300001
0.023332601 0.026889674 0.45200002
0.025107775 0.026760912 0.45250002
0.027046025 0.026312329 0.45300001
-0.015445692 0.028669311 0.45250002
0.021442346 0.028817434 0.45233339
0.023065804 0.028541252 0.45300001
0.024657892 0.028222835 0.45300001
0.017931446 0.031973112 0.45200002
0.019534651 0.030725129 0.45233339
0.021155296 0.03045176 0.45300001
0.015072011 0.033879403 0.45200002
0.01719231 0.033542696 0.4526
0.019244788 0.032362267 0.45300001
0.012689149 0.035785694 0.45200002
0.014611583 0.035348706 0.45250002
0.016379029 0.035228029 0.45300001
0.0093531413 0.037691981 0.45200002
0.010789087 0.037236255 0.45225003
0.012549005 0.037111443 0.4526667
0.014150102 0.036820117 0.45300001
-0.01447548 0.039598271 0.45200002
0.0074468516 0.039598271 0.45200002
0.0088863885 0.039165504 0.45250002
0.010806714 0.038730625 0.45300001
0.0055405619 0.041504562 0.45200002
0.0069785169 0.041073374 0.45250005
0.0084185805 0.040641133 0.45300001
0.0017279823 0.043410853 0.45200002
0.003316557 0.043093137 0.45200002
0.0050695916 0.042982303 0.45250002
0.0068264916 0.04287006 0.45300001
-0.013522335 0.044840567 0.45200002
-0.0020845972 0.045317139 0.45200002
-0.0004960224 0.044999428 0.45200002
0.0012527942 0.044890694 0.45250002
0.0031646858 0.044939771 0.45300001
0.005075193 0.044462148 0.45300001
-0.013552252 0.046372652 0.45300001
-0.0028471132 0.046842173 0.45200005
-0.00065570296 0.046824686 0.45275003
0.0012541785 0.046372652 0.45300001
-0.0052617467 0.048812009 0.45200002
-0.0030403994 0.048707142 0.45250005
-0.0011339555 0.04828316 0.45300001
-0.0088147307 0.0034011912 0.45500001
-0.0073755244 0.0034011912 0.45500001
-0.0049768463 0.0034011914 0.45500001
-0.0025781686 0.0034011912 0.45500001
-0.00065922644 0.0034011912 0.45500001
0.0012597156 0.0034011912 0.45500001
0.0031746374 0.0033974536 0.45450002
0.0050863959 0.0033937162 0.45400003
0.0070011206 0.0033937162 0.45400003
0.0089158453 0.0033937162 0.45400003
0.010843026 0.0033974536 0.45450002
0.012773369 0.0034011912 0.45500001
0.01469231 0.0034011912 0.45500001
0.016592471 0.0033974536 0.45450002
0.01898904 0.0029177181 0.45450005
0.021385083 0.0029177181 0.45450002
0.023301916 0.0029177181 0.45450002
0.025218748 0.0029177181 0.45450002
0.02710573 0.0033937162 0.45400003
-0.020328384 0.0048403977 0.45500001
-0.018868418 0.0048345514 0.45450002
-0.016952112 0.0043558702 0.45450002
-0.015018213 0.0043510781 0.45400003
-0.013103488 0.0043510781 0.45400003
-0.011188763 0.0043510781 0.45400003
-0.0092740385 0.0043510781 0.45400003
-0.007837995 0.0043510781 0.45400003
-0.020785781 0.0067519117 0.45450002
-0.019326342 0.0062658028 0.45400003
-0.021287855 0.0086782817 0.45500001
-0.021287855 0.010597224 0.45500001
-0.020283705 0.01344602 0.45400003
-0.020328384 0.014914844 0.45500001
-0.019326342 0.016796788 0.45400003
-0.01836898 0.018711515 0.45400003
-0.017449969 0.021631142 0.45500001
0.029499136 0.025413051 0.45400003
0.030968722 0.024962358 0.45450002
0.032886609 0.024482623 0.45450002
-0.016472377 0.026879191 0.45450002
0.02710573 0.027327776 0.45400003
0.02890351 0.026728962 0.4546667
0.023754962 0.029242499 0.45400003
0.025350567 0.028923381 0.45400006
0.026985973 0.028646497 0.4546667
-0.01551396 0.030712858 0.45450002
0.021840237 0.031157224 0.45400003
0.023289362 0.030695699 0.45425004
0.02508658 0.030586205 0.45500001
-0.015531028 0.032665059 0.45500001
0.019925512 0.03307195 0.45400003
0.021373583 0.032611482 0.45425001
0.02332755 0.032185324 0.45500001
-0.015531028 0.034584001 0.45500001
0.017053425 0.035944037 0.45400003
0.018975466 0.034839958 0.45416671
0.020928873 0.034104265 0.45500001
-0.015531028 0.036023207 0.45500001
0.013223976 0.037858762 0.45400003
0.01481958 0.037539642 0.45400006
0.01660239 0.037442096 0.45475
0.018530194 0.036502942 0.45500001
0.01083057 0.039773487 0.45400003
0.012752577 0.039316706 0.45425001
0.01469231 0.039381355 0.45500001
0.016131517 0.03890162 0.45500001
-0.014555544 0.041255444 0.45450002
0.009075406 0.041369092 0.45400006
0.010842498 0.041255444 0.45450002
0.012613457 0.041140389 0.45500001
0.0074798018 0.043602936 0.45400003
0.0089308387 0.043195762 0.45475003
0.010694514 0.04305933 0.45500001
0.0050863959 0.045517661 0.45400003
0.0070052394 0.045064043 0.45425004
0.0087755723 0.044978272 0.45500001
-0.013582169 0.047432385 0.45400003
0.0012569471 0.047432385 0.45400003
0.0031716716 0.046953704 0.45400003
0.0050919978 0.047005944 0.45450002
0.0068566306 0.046897214 0.45500001
0.01668427 0.0014887647 0.45700002
0.018611647 0.0014887647 0.45700002
0.021020867 0.0014887647 0.45700002
0.023430089 0.0014887647 0.45700002
0.025357466 0.0014887647 0.45700002
0.026802998 0.0014887647 0.45700002
-0.024272492 0.0034161417 0.45700002
-0.022826958 0.0034161417 0.45700002
-0.020853849 0.0034086665 0.45600003
-0.01893069 0.0034086665 0.45600003
-0.01702618 0.0029305599 0.45650005
-0.015100911 0.0029305599 0.45650005
-0.013175644 0.0029305599 0.45650002
-0.011250375 0.0029305599 0.45650002
-0.0094887754 0.0027711911 0.45666671
-0.0074079437 0.0024524534 0.45700002
-0.0049987226 0.0024524534 0.45700002
-0.002589501 0.0024524534 0.45700002
-0.00066212408 0.0024524534 0.45700002
0.0012652529 0.0024524534 0.45700002
0.0031856438 0.0024470866 0.45600003
0.0051088035 0.0024470866 0.45600003
0.0070319632 0.0024470866 0.45600003
0.0089551229 0.0024470866 0.45600003
0.010878282 0.0024470866 0.45600003
0.012801442 0.0024470866 0.45600003
0.014724601 0.0024470866 0.45600003
0.01664776 0.0024470866 0.45600003
0.02722514 0.0024470866 0.45600003
-0.024272492 0.0048616743 0.45700002
-0.022814736 0.0048587513 0.45675004
-0.021334639 0.0048510358 0.45600003
-0.022802513 0.0067816237 0.45650002
-0.02263375 0.0085430983 0.45633337
-0.022320667 0.010632688 0.45650002
-0.021334639 0.012543675 0.45600003
-0.021045305 0.014968775 0.45666671
-0.020417739 0.016907781 0.45700002
-0.01941148 0.017832365 0.45600003
-0.018490361 0.019798845 0.45700002
-0.017488321 0.023121053 0.45600003
-0.017526673 0.025099132 0.45700002
0.031552248 0.025525002 0.45600003
0.032585129 0.025580976 0.45700002
-0.017526673 0.026544664 0.45700002
0.029629089 0.027448162 0.45600003
0.031122826 0.027011989 0.45675004
-0.016544864 0.028922737 0.45650002
0.02770593 0.029371321 0.45600003
0.029164543 0.028906634 0.45625001
0.030657753 0.028953886 0.45700002
0.02578277 0.03129448 0.45600003
0.02724033 0.030830847 0.45625001
0.029051606 0.030720649 0.45700002
0.023378819 0.033217642 0.45600003
0.025329724 0.032773271 0.45650002
0.027124226 0.032648027 0.45700002
0.021615922 0.034820274 0.45600003
0.023417534 0.03471728 0.45675004
0.024875622 0.034254175 0.45700002
-0.015565162 0.03706396 0.45600003
0.019051712 0.03706396 0.45600003
0.020801375 0.036519106 0.45640001
-0.015599295 0.03810893 0.45700002
0.016808024 0.039628174 0.45600003
0.018581366 0.038527705 0.45625001
0.020378409 0.038430162 0.45700002
0.013282232 0.041871857 0.45600003
0.014724601 0.041391067 0.45600003
0.016675407 0.041459408 0.45675004
0.018451033 0.040357538 0.45700002
-0.014635608 0.042927373 0.45700002
0.011359072 0.043795019 0.45600003
0.012808723 0.043338239 0.45625001
0.014749083 0.043385733 0.45675004
0.016202426 0.042927373 0.45700002
0.0094359126 0.045718178 0.45600003
0.01088451 0.045262448 0.45625001
0.0126689 0.045175981 0.45700002
0.0089602955 0.047186665 0.45625001
0.016793793 -0.00044149166 0.46000001
0.018733822 -0.00044149166 0.46000001
0.020628911 -0.00044053191 0.45900002
0.022742778 -0.0007641901 0.45933336
0.02474251 -0.0006825084 0.45900002
-0.026314529 0.001011327 0.45900002
-0.024835587 0.0010096981 0.45850003
-0.022939082 0.0010116143 0.45925
-0.020991046 0.0014952801 0.45900002
-0.019055236 0.0014952801 0.45900002
-0.017119423 0.0014952801 0.45900002
-0.015183611 0.0014952801 0.45900002
-0.013247799 0.0014952801 0.45900002
-0.011311987 0.0014952801 0.45900002
-0.0093761757 0.0014952801 0.45900002
-0.0074403635 0.0014952801 0.45900002
-0.0047808299 0.0012535908 0.45925
-0.0026036669 0.0010119015 0.45950001
-0.00066574622 0.0010119015 0.45950001
0.0012712186 0.0010110871 0.45925003
0.0032066021 0.0010102727 0.45900002
0.005142414 0.0010102727 0.45900002
0.0070705158 0.0010096981 0.45850003
0.009009392 0.0010099853 0.45875004
0.010949849 0.0010102727 0.45900002
0.012885662 0.0010102727 0.45900002
0.014813137 0.0010099853 0.45875004
0.016738504 0.00052679959 0.45850003
0.018652372 0.00052622508 0.45800003
0.020583965 0.00052622508 0.45800003
0.02299846 0.00052622508 0.45800003
0.025412951 0.00052622508 0.45800003
0.027373873 0.0010096981 0.45850003
-0.0262572 0.0029407181 0.45800003
-0.024969472 0.002779752 0.45800003
-0.022876911 0.0024578196 0.45800003
-0.020945314 0.0024578196 0.45800003
-0.019013721 0.0024578196 0.45800003
-0.026285864 0.0048781587 0.45850003
-0.025291404 0.0048723128 0.45800003
-0.026371861 0.0063486113 0.46000001
-0.024863198 0.0068192901 0.45900002
-0.02443183 0.0087736472 0.46000001
-0.023359809 0.0092184003 0.45800003
-0.02443183 0.010228669 0.46000001
-0.023359809 0.010667097 0.45800003
-0.02290241 0.012612445 0.45850003
-0.022732943 0.014379544 0.45833337
-0.021428214 0.015978981 0.45800003
-0.022491802 0.016048757 0.46000001
-0.020991046 0.017465727 0.45900002
-0.019539189 0.018917587 0.45900002
-0.018571282 0.021337353 0.45900002
-0.018611742 0.023323867 0.46000001
-0.018611742 0.025263898 0.46000001
0.033622228 0.025636952 0.45800003
-0.018611742 0.026718918 0.46000001
-0.017565025 0.027568547 0.45800003
0.033176035 0.027115218 0.45850003
0.034739066 0.026718918 0.46000001
-0.017622553 0.029112805 0.45950001
0.031690635 0.029017244 0.45800003
0.033211686 0.0290806 0.45900002
-0.016946727 0.030832216 0.45866668
0.029759038 0.031431735 0.45800003
0.031242333 0.030982625 0.45850003
0.033050369 0.030855095 0.45900005
-0.01663547 0.032952223 0.45900002
0.027827445 0.033363331 0.45800003
0.029292382 0.032898646 0.45825005
0.031275876 0.032952223 0.45900002
0.032727733 0.032952223 0.45900002
-0.016653592 0.034926567 0.45950001
0.02557392 0.034972996 0.45800003
0.0273744 0.03485056 0.45850003
0.029356308 0.0349073 0.45925
0.031327244 0.034945309 0.45975003
0.032763384 0.034926567 0.45950001
0.02299846 0.036743622 0.45800003
0.02516718 0.036904808 0.45880005
0.027434103 0.036864489 0.45950001
0.029242314 0.036742404 0.46000001
0.031344015 0.036419068 0.46000001
0.032799035 0.036419068 0.46000001
-0.015701698 0.039329112 0.46000001
0.021066865 0.039158117 0.45800003
0.022540668 0.038717438 0.45850003
0.024514142 0.038781032 0.45925
0.026784945 0.038747102 0.46000001
0.01913527 0.04108971 0.45800003
0.020595465 0.040629238 0.45825005
0.022577275 0.040717904 0.45925
0.024392243 0.040622465 0.46000001
0.016881745 0.043665171 0.45800003
0.018662816 0.042561889 0.45825005
0.020640409 0.042654768 0.45925
0.022452213 0.042562496 0.46000001
0.013340487 0.045918696 0.45800003
0.014789183 0.045435801 0.45800003
0.016739558 0.045001976 0.45850003
0.018703543 0.044591635 0.45925
0.020512184 0.044502527 0.46000001
-0.026429189 -0.00044245145 0.46100003
-0.024971005 -0.00044245145 0.46100003
-0.023051206 -0.00044293131 0.46150002
-0.021128245 -0.00044341121 0.46200001
-0.0045662969 -0.00044341121 0.46200001
-0.0026178327 -0.00044341121 0.46200001
-0.00066936837 -0.00044341121 0.46200001
0.0012790959 -0.00044341121 0.46200001
0.00322354 -0.00044293131 0.46150002
0.0051648207 -0.00044245145 0.46100003
0.0071167778 -0.00093004736 0.46149999
0.0088974889 -0.00076751545 0.46133336
0.010997562 -0.00044245145 0.46100003
0.012941808 -0.00044245145 0.46100003
0.015059191 -0.00076751545 0.46133336
0.016866811 -0.0014176434 0.46200001
0.018794384 -0.001416109 0.46150002
0.020718796 -0.0014145748 0.46100003
0.022176981 -0.0014145748 0.46100003
-0.021082509 0.00052967196 0.46100003
-0.019138265 0.00052967196 0.46100003
-0.017194018 0.00052967196 0.46100003
-0.015249771 0.00052967196 0.46100003
-0.013305524 0.00052967196 0.46100003
-0.011361278 0.00052967196 0.46100003
-0.009417031 0.00052967196 0.46100003
-0.0069867214 0.00052967196 0.46100006
-0.0050424747 0.00052967196 0.46100003
-0.025512287 0.0083246781 0.46200001
-0.02351282 0.015111523 0.46100003
-0.022589592 0.017092766 0.46200001
-0.021082509 0.018513955 0.46100003
-0.019624326 0.01997214 0.46100003
-0.019666895 0.021476813 0.46200001
-0.019666895 0.023425277 0.46200001
-0.018652203 0.027749127 0.46100003
-0.018672433 0.029239517 0.46150002
-0.018692663 0.030732017 0.46200001
-0.017680079 0.03163762 0.46100003
-0.017699255 0.033132229 0.46150002
-0.017718431 0.034628946 0.46200001
-0.016707957 0.036498241 0.46100003
0.02995397 0.037470363 0.46100003
0.031412154 0.037470363 0.46100003
0.032870337 0.037470363 0.46100003
0.029176271 0.039025765 0.46100003
0.031429451 0.038949925 0.46125001
0.032905988 0.038971297 0.46150002
-0.015769966 0.04047434 0.46200001
0.025093352 0.041358858 0.46100003
0.026551537 0.040872797 0.46100003
0.028542407 0.040939558 0.46175
0.030993177 0.04047434 0.46200001
0.032941639 0.04047434 0.46200001
0.023149105 0.043303102 0.46100003
0.024620898 0.042840526 0.46125004
0.02644676 0.04274755 0.46200001
0.02807048 0.042422805 0.46200001
-0.014763709 0.044275228 0.46100003
0.01739149 -0.0023970529 0.46300003
0.018367831 -0.0023970529 0.46300003
-0.019221295 -0.00044437096 0.46300003
-0.017268613 -0.00044437096 0.46300003
-0.01531593 -0.00044437096 0.46300003
-0.013363249 -0.00044437096 0.46300003
-0.011410567 -0.00044437096 0.46300003
-0.0094578853 -0.00044437096 0.46300003
-0.0070170332 -0.00044437096 0.46300003
-0.0021353285 -0.0014207119 0.46300003
-0.00067081721 -0.0014207119 0.46300003
0.0012818646 -0.0014207119 0.46300003
0.0032345462 -0.0014207119 0.46300003
0.0051872279 -0.0014207119 0.46300003
0.0095807621 -0.0014207119 0.46300003
0.011045273 -0.0014207119 0.46300003
0.012997955 -0.0014207119 0.46300003
0.014462466 -0.0014207119 0.46300003
-0.02654385 0.007366356 0.46300003
-0.025567509 0.0093190372 0.46300003
-0.020685805 0.020058786 0.46300003
-0.019709464 0.02542866 0.46300003
-0.019709464 0.027381344 0.46300003
-0.019709464 0.029334027 0.46300003
-0.018733123 0.031774879 0.46300003
-0.018733123 0.032751217 0.46300003
-0.017756782 0.035680242 0.46300003
-0.016780442 0.037632924 0.46300003
-0.015804101 0.041538287 0.46300003
0.03057209 0.041538287 0.46300003
0.032036602 0.041538287 0.46300003
0.028782135 0.043165527 0.46300003
0.030083921 0.04251463 0.46300003
-0.023226557 -0.0024074069 0.46500003
-0.02126544 -0.0024074069 0.46500003
-0.019304324 -0.0024074069 0.46500003
-0.017343206 -0.0024074069 0.46500003
-0.01538209 -0.0024074069 0.46500003
-0.0045959484 -0.0024074069 0.46500003
-0.0026348315 -0.0024074069 0.46500003
-0.00067371491 -0.0024074069 0.46500003
0.0012846332 -0.0024022299 0.46400002
0.0032415325 -0.0024022299 0.46400002
0.0053655924 -0.0027308087 0.46433339
0.0069970451 -0.0027308087 0.46433336
0.0091122296 -0.0024022299 0.46400002
0.011240507 -0.0027308087 0.46433339
0.013040065 -0.0028950977 0.46450001
0.014999073 -0.0028950977 0.46450001
0.016801091 -0.003059387 0.46466669
0.019086951 -0.003059387 0.46466669
0.020853624 -0.0024022299 0.46400002
0.022810524 -0.0024022299 0.46400002
-0.026658511 -0.0014268488 0.46500003
-0.025161117 -0.0014253146 0.46450001
-0.023176607 -0.0014237803 0.46400002
-0.021219708 -0.0014237803 0.46400002
-0.019262809 -0.0014237803 0.46400002
-0.017305911 -0.0014237803 0.46400002
-0.01534901 -0.0014237803 0.46400002
-0.013392111 -0.0014237803 0.46400002
-0.011459856 -0.0014268488 0.46500003
-0.0090084607 -0.0014268489 0.46500003
-0.0065505411 -0.0014253146 0.46450001
-0.0045860643 -0.0014237803 0.46400002
-0.00311839 -0.0014237803 0.46400002
-0.026658511 0.0083787348 0.46500003
-0.025622731 0.010317615 0.46400002
-0.021708932 0.01912366 0.46400002
-0.020775162 0.021125993 0.46500003
-0.020775162 0.022596831 0.46500003
-0.020775162 0.024067668 0.46500003
-0.019752033 0.031354282 0.46400002
-0.019454263 0.033522122 0.46466669
-0.018814044 0.034853809 0.46500003
-0.017833486 0.036814924 0.46500003
-0.016852926 0.03877604 0.46500003
0.033084244 0.041628003 0.46400002
-0.015872369 0.042698275 0.46500003
-0.017417802 -0.0043873135 0.46700001
-0.015284119 -0.0047155721 0.46700001
-0.01298631 -0.0043873135 0.46700001
-0.011016758 -0.0043873135 0.46700001
0.0012929389 -0.0043873135 0.46700001
0.0032624905 -0.0043873135 0.46700001
0.0052320417 -0.0043873135 0.46700001
0.0072015934 -0.0043873135 0.46700001
0.009171145 -0.0043873135 0.46700001
0.011140697 -0.0043873135 0.46700001
0.013110248 -0.0043873135 0.46700001
0.0150798 -0.0043873135 0.46700001
0.01704935 -0.0043873135 0.46700001
0.019018903 -0.0043873135 0.46700001
-0.025269452 -0.002415173 0.46650001
-0.023276506 -0.0033952515 0.46600002
-0.021311171 -0.0033952515 0.46600002
-0.019345839 -0.0033952515 0.46600002
-0.017380502 -0.0033952515 0.46600002
-0.015415169 -0.0033952515 0.46600002
-0.013165737 -0.0030050993 0.4664
-0.010805649 -0.0028085657 0.46640006
-0.0085456595 -0.0029075609 0.46650001
-0.0065782163 -0.0029075609 0.46650001
-0.0046157157 -0.0034025374 0.46700001
-0.0026404979 -0.0033952515 0.46600002
-0.00067516376 -0.0033952515 0.46600002
0.0012901704 -0.0033952515 0.46600002
0.0032555046 -0.0033952515 0.46600002
0.0047295052 -0.0033952515 0.46600002
0.0076775067 -0.0033952515 0.46600002
0.0091515072 -0.0033952515 0.46600002
0.010625508 -0.0033952515 0.46600002
0.020966511 -0.0033988943 0.46650001
-0.026715841 0.0093794204 0.46600002
-0.026773171 0.010384324 0.46700001
-0.023818845 0.016292978 0.46700001
-0.022834068 0.01826253 0.46700001
-0.021849293 0.020232081 0.46700001
-0.020819837 0.025102094 0.46600002
-0.020864516 0.026633125 0.46700001
-0.020819837 0.028541427 0.46600002
-0.020819839 0.030998096 0.46600002
-0.021506142 0.032682329 0.4666667
-0.021356905 0.034018941 0.46700001
-0.019367123 0.035457574 0.46650001
-0.01791019 0.037958045 0.46700001
-0.01688917 0.039842099 0.46600002
-0.016925413 0.040912371 0.46700001
-0.010557648 -0.0063772826 0.46850002
-0.0085914563 -0.0063840887 0.46900001
0.01959485 -0.0063840887 0.46900001
0.020583844 -0.0063840887 0.46900001
-0.014001002 -0.0053835926 0.46800002
-0.012520675 -0.0053835926 0.46800002
-0.010382426 -0.0050546313 0.46800002
-0.0085822968 -0.0048959018 0.46850002
-0.0066064186 -0.0048959018 0.46850002
-0.0046305414 -0.0048959018 0.46850002
-0.0026546635 -0.0048959018 0.46850002
-0.0006787859 -0.0048959018 0.46850002
0.0012984761 -0.0053950958 0.46900001
0.0032764627 -0.0053950958 0.46900001
0.0052544493 -0.0053950958 0.46900001
0.007232436 -0.0053950958 0.46900001
0.0092104217 -0.0053950958 0.46900001
0.011188408 -0.0053950958 0.46900001
0.013166394 -0.0053950958 0.46900001
0.015144382 -0.0053950958 0.46900001
0.017085861 -0.0053835926 0.46800002
0.019059628 -0.0053835926 0.46800002
0.02105587 -0.0048959018 0.46850002
0.02256183 -0.0044061025 0.46900001
-0.0268305 -0.0024229388 0.46800002
0.023032274 -0.0034134663 0.46850002
-0.021896077 0.02126229 0.46800002
-0.02191947 0.022767443 0.46850002
-0.021942865 0.031197654 0.46900001
-0.02142603 0.035116151 0.46850002
-0.020953871 0.036142617 0.46900001
-0.019428868 0.036559001 0.46800002
-0.017986892 0.039109599 0.46900001
-0.0064623873 -0.0067280689 0.47000003
-0.0046503092 -0.0069011124 0.47049999
-0.0028321245 -0.0067378464 0.47066671
-0.00068240805 -0.0064113135 0.47100002
0.0013040134 -0.0064113135 0.47100002
0.0032904346 -0.0064113135 0.47100002
0.005276856 -0.0064113135 0.47100002
0.0072632777 -0.0064113135 0.47100002
0.0092496984 -0.0064113135 0.47100002
0.01123612 -0.0064113135 0.47100002
0.013222542 -0.0064113135 0.47100002
0.015208963 -0.0064113135 0.47100002
0.017158877 -0.0063977013 0.47000003
0.019003049 -0.0070689162 0.47066671
-0.022980753 0.019370951 0.47000003
-0.022036439 0.02537143 0.47100002
-0.021989651 0.02432646 0.47000003
-0.021989651 0.030273072 0.47000003
-0.020998549 0.036715232 0.47000003
-0.019016344 0.038201887 0.47000003
0.0008108365 -0.01042825 0.47300002
-0.00068385684 -0.008415564 0.47200003
0.0013095506 -0.0089321081 0.47300002
0.0031381692 -0.0087658698 0.47300002
0.0048005492 -0.0084333932 0.47300002
0.018764542 -0.0084333932 0.47300002
-0.0021768359 -0.0074202446 0.47200003
-0.00068385684 -0.0074202446 0.47200003
0.001306782 -0.0074202446 0.47200003
0.0032974207 -0.0074202446 0.47200003
0.0052880598 -0.0074202446 0.47200003
0.0072786985 -0.0074202446 0.47200003
0.0092693372 -0.0074202446 0.47200003
0.011259977 -0.0074202446 0.47200003
0.013278688 -0.0074359654 0.47300002
0.015273545 -0.0074359654 0.47300002
0.017249618 -0.007428105 0.47250003
-0.024073863 0.01746274 0.47200003
-0.023078544 0.020946357 0.47200003
-0.023078544 0.022439336 0.47200003
-0.022083225 0.026918273 0.47200003
-0.022083225 0.028908912 0.47200003
-0.021087905 0.037369128 0.47200003
-0.020092586 0.038364448 0.47200003
0.0018120876 -0.010950065 0.47400004
0.0033113931 -0.010950065 0.47400004
0.0053221975 -0.010973694 0.47500002
0.0073367907 -0.010990757 0.47575
0.0093478914 -0.010996269 0.47600001
0.011188108 -0.010828977 0.47600001
0.0038111615 -0.0094507597 0.47400004
0.0054770568 -0.009117581 0.47400007
0.0073172511 -0.0089609604 0.4745
0.0093184337 -0.0089609604 0.47450003
0.011319617 -0.0089609604 0.47450003
0.013342117 -0.0089753885 0.47525001
0.015354272 -0.0089798458 0.47550005
0.017350283 -0.0089753876 0.47525001
-0.025281634 0.016606975 0.47600001
-0.024252377 0.019096807 0.47550002
-0.024277879 0.021123869 0.47600001
-0.024595462 0.022947535 0.4756667
-0.023176335 0.023533955 0.47400004
-0.023225229 0.024585251 0.47500002
0.0058470089 -0.012528164 0.47700003
0.0073558032 -0.012528164 0.47700003
0.0093675293 -0.012528164 0.47700003
0.011379255 -0.012528164 0.47700003
0.01288805 -0.012528164 0.47700003
0.011882187 -0.011522301 0.47700003
0.013390982 -0.01101937 0.47700003
0.015235065 -0.010851726 0.47700006
0.017414436 -0.010516439 0.47700003
-0.02332302 0.025694631 0.47700003
0.013923041 -0.012554429 0.47800002
0.015434999 -0.012554429 0.47800002
0.016946957 -0.012554429 0.47800002
0.015938984 -0.011546457 0.47800002
0.017450942 -0.011546457 0.47800002
-0.025414415 0.021234289 0.47850001
-0.023396362 0.027289499 0.47850001
