# .PCD v0.7 - Point Cloud Data file format
VERSION 0.7
FIELDS x y z
SIZE 4 4 4
TYPE F F F
COUNT 1 1 1
WIDTH 1364
HEIGHT 1
VIEWPOINT 0 0 0 1 0 0 0
POINTS 1364
DATA ascii
-0.083599873 0.088805586 0.32660002
-0.0883919 0.090707272 0.32700002
-0.086774401 0.091155082 0.32675001
-0.084900483 0.090775967 0.32683337
-0.09656401 0.075999089 0.32900003
-0.095176458 0.075999096 0.32900006
-0.093095154 0.075999096 0.32900006
-0.091360718 0.075999089 0.32900003
-0.097257778 0.077039741 0.32900003
-0.095010057 0.077094093 0.32812503
-0.092812181 0.076805584 0.32800004
-0.090875521 0.076922134 0.32850003
-0.088962726 0.076876275 0.32860002
-0.087065041 0.076922134 0.32850003
-0.085169055 0.076967992 0.32840002
-0.083128914 0.077381968 0.32800001
-0.08174558 0.077843077 0.32800001
-0.096697435 0.078462407 0.32866669
-0.095724538 0.079001337 0.32850003
-0.080856062 0.078766987 0.32825005
-0.079618603 0.079346642 0.32850003
-0.09656401 0.080161713 0.32900003
-0.095083781 0.081350118 0.32820001
-0.08036226 0.081301391 0.32800001
-0.079138756 0.08100412 0.32866669
-0.094685987 0.083156586 0.32850003
-0.093503848 0.083376378 0.32800001
-0.080708086 0.083030552 0.32800001
-0.079566613 0.082936801 0.32900003
-0.093022138 0.084845841 0.32833338
-0.082437247 0.085451365 0.32800001
-0.081163049 0.084874794 0.32844445
-0.079913497 0.084324345 0.32900003
-0.092537098 0.086727962 0.32824999
-0.091428861 0.087526351 0.32800001
-0.082437247 0.086834691 0.32800001
-0.081617609 0.086855203 0.32860002
-0.092401378 0.088486969 0.32900003
-0.082667798 0.089370787 0.32800001
-0.081994817 0.089180753 0.32900006
-0.090182796 0.090777531 0.32850003
-0.089214131 0.091538243 0.32833338
-0.084512234 0.091676332 0.32800001
-0.083341561 0.091036893 0.32850003
-0.089071274 0.093065865 0.32900003
-0.0869767 0.092761114 0.32816669
-0.084986895 0.092740051 0.32850003
-0.083382353 0.092649601 0.32900003
-0.088470012 0.094268404 0.32900006
-0.086989962 0.094314657 0.32900003
-0.085463665 0.094037138 0.32900003
-0.098895997 0.075763099 0.33100003
-0.097053543 0.075337812 0.33066672
-0.094913468 0.075299665 0.33050007
-0.092989922 0.075252749 0.33060002
-0.09094999 0.075365871 0.3305715
-0.088949651 0.075588599 0.33100003
-0.09901233 0.076693743 0.33100003
-0.097553395 0.076230094 0.33000001
-0.090594597 0.076230094 0.33000001
-0.089202844 0.076230094 0.33000001
-0.087115198 0.076230094 0.33000001
-0.084587224 0.077159077 0.33100003
-0.082951538 0.077344187 0.33060002
-0.080918156 0.077158108 0.33062506
-0.078963183 0.077468872 0.33083338
-0.07704895 0.077577874 0.33100006
-0.098249279 0.078665674 0.33000001
-0.097321443 0.079245567 0.33000001
-0.080156393 0.078317732 0.33000001
-0.078677647 0.078926623 0.33000001
-0.076779552 0.079119787 0.33044448
-0.075234175 0.079392642 0.33100006
-0.096857518 0.081101254 0.33000001
-0.078068756 0.081101254 0.33000001
-0.077083021 0.080814749 0.33025002
-0.075560868 0.080830336 0.33060002
-0.096161634 0.082493015 0.33000001
-0.078672774 0.083100133 0.33020005
-0.077432841 0.082568489 0.33100003
-0.095082209 0.085012786 0.33060002
-0.080156393 0.085624471 0.33000001
-0.079079509 0.084794238 0.33083338
-0.094591737 0.086930923 0.33100003
-0.08062578 0.08714807 0.33050001
-0.079701304 0.086581923 0.33100003
-0.09435907 0.088326894 0.33100003
-0.09324047 0.088845596 0.33033335
-0.081092127 0.088837311 0.330625
-0.092265099 0.090420865 0.33100003
-0.091290474 0.090843573 0.33000001
-0.082244031 0.091191515 0.33000001
-0.081712902 0.091027103 0.33066672
-0.090594605 0.092931211 0.33000001
-0.084331676 0.093627095 0.33000001
-0.082812302 0.093111381 0.33028573
-0.081795268 0.092863828 0.33100003
-0.090869121 0.094608799 0.33100003
-0.089342013 0.095158033 0.33000001
-0.086941227 0.095540762 0.33000001
-0.085070148 0.09495087 0.3301667
-0.083423913 0.094841465 0.33100003
-0.090171136 0.096004777 0.33100003
-0.088600665 0.096877262 0.33100003
-0.087030187 0.097051755 0.33100003
-0.085424803 0.096563168 0.33100006
-0.09633363 0.073412053 0.333
-0.095631421 0.073412053 0.333
-0.098717451 0.074760303 0.33275002
-0.096890137 0.074353039 0.33250004
-0.094955206 0.074305288 0.33260003
-0.093215846 0.074400783 0.33240002
-0.091493703 0.074591801 0.33200002
-0.088960461 0.075518675 0.333
-0.087240219 0.075708002 0.33260003
-0.085098326 0.075518683 0.333
-0.082752004 0.075708002 0.33260003
-0.080927953 0.075708002 0.33260003
-0.079010233 0.075755335 0.33250004
-0.07725735 0.075755335 0.33250001
-0.075618543 0.075518675 0.333
-0.10054687 0.076571986 0.333
-0.086372852 0.076456487 0.33250001
-0.084970556 0.076456487 0.33250004
-0.082980342 0.076574288 0.33225
-0.079241998 0.076692089 0.33200002
-0.076907717 0.076737866 0.33220002
-0.075191632 0.076845624 0.33266667
-0.07358215 0.077063538 0.333
-0.099544823 0.078092285 0.33200002
-0.074808046 0.078559019 0.33200002
-0.073474959 0.078989804 0.33283335
-0.098643541 0.080663398 0.33250001
-0.074516341 0.081067704 0.33200002
-0.073474959 0.081096075 0.33283335
-0.097094484 0.082992971 0.33200002
-0.076767698 0.083183408 0.33220002
-0.075241938 0.083030976 0.33249998
-0.073863029 0.082540736 0.333
-0.09670534 0.085263431 0.3326667
-0.078541897 0.08544331 0.33200002
-0.077257186 0.084871016 0.33250004
-0.096044339 0.086843506 0.33200002
-0.095344238 0.087543607 0.33200002
-0.078801915 0.087076202 0.33244443
-0.077374056 0.08605177 0.333
-0.09633363 0.088158391 0.333
-0.094994187 0.088943794 0.33200002
-0.080642194 0.089993946 0.33200002
-0.0795248 0.088893883 0.33260003
-0.094227009 0.090616107 0.333
-0.093197823 0.091343597 0.3326667
-0.080680065 0.091050476 0.33257145
-0.079480678 0.090265006 0.333
-0.092822596 0.09307383 0.333
-0.091843754 0.092794329 0.33200002
-0.081159405 0.09290614 0.33239999
-0.092120394 0.095180452 0.333
-0.091493703 0.094894633 0.33200002
-0.08270853 0.095223963 0.33233336
-0.081257418 0.094983272 0.3328
-0.090930872 0.096789896 0.33250001
-0.089393407 0.097695015 0.33200002
-0.084651649 0.097277336 0.33216667
-0.083362773 0.097088613 0.3328
-0.090013772 0.099042587 0.333
-0.088623308 0.098955192 0.33200002
-0.087030575 0.099007696 0.33200002
-0.084969848 0.098894052 0.33250004
-0.090013772 0.1000959 0.333
-0.088960461 0.1007981 0.333
-0.087104633 0.10099874 0.333
-0.085566461 0.10032997 0.333
-0.087556049 0.10220251 0.333
-0.10100947 0.0735704 0.33500001
-0.098883659 0.073389538 0.33450004
-0.097286031 0.073308542 0.3346667
-0.09528555 0.073334947 0.33425
-0.093805648 0.073632516 0.33400002
-0.072187372 0.073852971 0.33500001
-0.10073414 0.075004123 0.33428577
-0.099440172 0.074336834 0.33400002
-0.092673659 0.074559391 0.33500001
-0.09101098 0.074752092 0.33460003
-0.089008495 0.074800268 0.33450004
-0.086892389 0.074800268 0.33450004
-0.08494249 0.074752092 0.3346
-0.083012328 0.074800268 0.33450001
-0.081083857 0.074848443 0.33440003
-0.079133324 0.074800268 0.33450004
-0.077017218 0.074800268 0.33450004
-0.074785076 0.07503657 0.33437505
-0.072820798 0.075190462 0.3346667
-0.071245477 0.075736769 0.33500001
-0.1008488 0.077858403 0.33400002
-0.072852284 0.076978013 0.33400002
-0.071311839 0.077121861 0.33462504
-0.10014448 0.079619199 0.33400002
-0.072676204 0.07926704 0.33400005
-0.071073867 0.078915216 0.33475003
-0.072513267 0.081226431 0.33433336
-0.071327299 0.080759212 0.33483335
-0.098031543 0.083492927 0.33400002
-0.074084833 0.083492927 0.33400002
-0.072696172 0.083000839 0.33450004
-0.071480945 0.082330056 0.33500001
-0.098325051 0.084449328 0.33500001
-0.076197773 0.085253716 0.33400002
-0.074840531 0.08514899 0.33462504
-0.073600218 0.084449328 0.33500001
-0.097424358 0.087102048 0.33433336
-0.076899864 0.087200761 0.33437502
-0.075719491 0.086921811 0.33500001
-0.096912205 0.089394294 0.33500001
-0.095918596 0.089831762 0.33400002
-0.07866288 0.089127451 0.33400002
-0.077227153 0.088917494 0.33480003
-0.096205778 0.09080714 0.33500001
-0.09497951 0.091240391 0.33400005
-0.079014912 0.091054715 0.33442861
-0.077838764 0.090100713 0.33500001
-0.095146142 0.092573196 0.33500001
-0.093805648 0.093001179 0.33400002
-0.080658443 0.093118571 0.33400005
-0.079392895 0.092785127 0.33500001
-0.094086505 0.094339259 0.33500001
-0.093240708 0.095257036 0.33450001
-0.080584198 0.094950408 0.3346667
-0.079958029 0.094339259 0.33500001
-0.092397019 0.096170597 0.33400002
-0.091967233 0.097871378 0.33500001
-0.082383506 0.097441837 0.33433336
-0.081225149 0.096850485 0.33440003
-0.079958029 0.096811742 0.33500001
-0.091079198 0.099087358 0.33433336
-0.08311598 0.099119812 0.33444446
-0.090284079 0.1011008 0.33400002
-0.089579761 0.10180512 0.33400002
-0.086058185 0.10180512 0.33400002
-0.084808841 0.10126863 0.33416671
-0.083641849 0.10083236 0.3346667
-0.088729374 0.10308199 0.33433336
-0.08676251 0.10321376 0.33400005
-0.084802084 0.10301819 0.33500001
-0.088435121 0.10458241 0.33500001
-0.086921357 0.10513746 0.33500001
-0.085609421 0.10422919 0.33500001
-0.1028206 0.073583245 0.33700001
-0.10078235 0.072501853 0.33660004
-0.09912011 0.07240916 0.33649999
-0.096990287 0.072764486 0.33649999
-0.094862588 0.073118746 0.33649999
-0.093088619 0.073118754 0.33650002
-0.090959862 0.073118761 0.33650002
-0.089052007 0.073255323 0.33680001
-0.086831175 0.073583245 0.33700001
-0.085054561 0.073583245 0.33700001
-0.083277963 0.073583245 0.33700001
-0.081146039 0.073583245 0.33700001
-0.079014115 0.073583245 0.33700001
-0.076704524 0.073405586 0.33700001
-0.074892394 0.073156863 0.33700001
-0.073056303 0.07316798 0.3364
-0.07112629 0.07315515 0.33666667
-0.069538899 0.073346369 0.33700001
-0.10283768 0.07492964 0.33666667
-0.092950299 0.074073434 0.33600006
-0.090824708 0.074073434 0.33600006
-0.08905337 0.074073434 0.33600003
-0.087282047 0.074073434 0.33600006
-0.085156441 0.074073434 0.33600006
-0.08303085 0.074073434 0.33600006
-0.080905251 0.074073434 0.33600006
-0.078779653 0.074073434 0.33600006
-0.077008322 0.074073434 0.33600003
-0.075236991 0.074073434 0.33600006
-0.07346566 0.074073434 0.33600003
-0.070897222 0.074693397 0.336
-0.069076583 0.075009361 0.33662498
-0.067643851 0.075715162 0.33700001
-0.10226258 0.076984562 0.33633336
-0.070277259 0.076553293 0.33600003
-0.068927802 0.076983854 0.33633333
-0.067643851 0.07713645 0.33700001
-0.068927802 0.079111561 0.33633333
-0.067643851 0.078913048 0.33700001
-0.070454389 0.081335887 0.33600003
-0.069124445 0.080877714 0.33660004
-0.099474899 0.083054021 0.33650002
-0.071055517 0.083248541 0.33633336
-0.069598116 0.082643919 0.33700001
-0.09861856 0.085409947 0.33600003
-0.073012784 0.085177377 0.3362
-0.071143717 0.084535159 0.33675003
-0.098912068 0.086374782 0.33700001
-0.074758463 0.087356344 0.3364
-0.073574454 0.086601429 0.33650002
-0.097910024 0.088952616 0.33600003
-0.076654054 0.089661144 0.33600003
-0.075206183 0.089014128 0.33649999
-0.097490788 0.09063863 0.33700001
-0.078071117 0.091432475 0.33600003
-0.076799124 0.091057152 0.33625001
-0.075460911 0.09063863 0.33700001
-0.096780144 0.09205991 0.33700001
-0.07863795 0.093345515 0.33600003
-0.076843813 0.092843115 0.33683336
-0.094863117 0.094760619 0.33650002
-0.080196716 0.095329404 0.33600003
-0.078845009 0.095024757 0.3367143
-0.077592827 0.094191834 0.33700001
-0.09464822 0.096323758 0.33700001
-0.093443938 0.097244702 0.33650002
-0.080550984 0.096746475 0.33600003
-0.079547092 0.096856736 0.33700001
-0.092516296 0.099521644 0.33700001
-0.082322314 0.099580601 0.33600003
-0.080936283 0.099108025 0.33649999
-0.079724751 0.098455682 0.33700001
-0.091805652 0.10129825 0.33700001
-0.082676582 0.10099766 0.33600003
-0.081501357 0.10094292 0.33700001
-0.090470433 0.10276899 0.33600003
-0.083153613 0.10292165 0.33649999
-0.081856675 0.10200889 0.33700001
-0.089230508 0.105426 0.33600003
-0.085198335 0.10518299 0.33616671
-0.083354861 0.1047996 0.33683333
-0.087013662 0.10712671 0.33633333
-0.085358776 0.10677775 0.33680001
-0.083988599 0.10627273 0.33700001
-0.10409439 0.069936484 0.34
-0.1062453 0.071011938 0.34
-0.10492783 0.071207426 0.33971432
-0.10303024 0.071333863 0.33885714
-0.10107093 0.071445607 0.33900005
-0.099071123 0.071628675 0.33928573
-0.096953668 0.071572401 0.33960003
-0.094991885 0.071622893 0.33950004
-0.093031779 0.071673386 0.33940002
-0.091054879 0.071622893 0.33950004
-0.088907145 0.071622893 0.33950004
-0.087245665 0.071370423 0.34
-0.080792956 0.071370423 0.34
-0.078884363 0.071622893 0.33950001
-0.076902203 0.071572401 0.33960003
-0.075029194 0.071468413 0.33933336
-0.073121145 0.071229771 0.33933333
-0.070997462 0.071253099 0.33944443
-0.069134027 0.071419239 0.33966666
-0.06752906 0.071370423 0.34
-0.1062453 0.072804354 0.34
-0.10460408 0.073032364 0.33840004
-0.10291188 0.072661199 0.33800003
-0.098492824 0.072376095 0.33800003
-0.097067326 0.072376095 0.33800003
-0.094929084 0.072376095 0.33800003
-0.092790827 0.072376095 0.33800003
-0.091008946 0.072376095 0.33800003
-0.089048892 0.072554283 0.33800003
-0.087078631 0.072565034 0.33888885
-0.084962919 0.072588816 0.33900005
-0.082937084 0.072651498 0.338875
-0.08103168 0.072526313 0.33912501
-0.079199396 0.072889403 0.33840001
-0.07725288 0.072661199 0.33800003
-0.074972078 0.072376095 0.33800003
-0.072833829 0.072376095 0.33800003
-0.071051955 0.072376095 0.33800003
-0.068771042 0.072835393 0.33866668
-0.066767961 0.072756536 0.33977777
-0.065378159 0.073521324 0.34
-0.10484485 0.074807584 0.33933336
-0.10348208 0.075939842 0.33800003
-0.06830132 0.074267142 0.33850002
-0.06689205 0.074819639 0.33909091
-0.065378159 0.074955262 0.34
-0.10481136 0.076389194 0.34
-0.10378823 0.077236801 0.33900002
-0.06677784 0.076874793 0.33937502
-0.10205658 0.079503596 0.33800003
-0.066790551 0.079092778 0.3388572
-0.10205658 0.080216341 0.33800003
-0.10134383 0.081641845 0.33800003
-0.068557329 0.081641845 0.33800003
-0.067205474 0.080956459 0.33877781
-0.10116779 0.082836531 0.33900005
-0.068624243 0.083030127 0.33833337
-0.067120925 0.08278098 0.33974999
-0.10088899 0.084908776 0.33966669
-0.099918328 0.08449284 0.33800003
-0.072121076 0.085918345 0.33800003
-0.070933163 0.085680768 0.33800003
-0.068993635 0.084911004 0.33909997
-0.06752906 0.084275834 0.34
-0.10050956 0.08678522 0.34
-0.099205576 0.087343842 0.33800003
-0.072530791 0.08705207 0.33825001
-0.071044177 0.087178126 0.33966669
-0.069440976 0.086665735 0.34
-0.099645838 0.088805854 0.33950001
-0.074259326 0.089482091 0.33800003
-0.073030137 0.088811561 0.33850002
-0.071830861 0.08893612 0.34
-0.098784223 0.090461686 0.33900002
-0.074807733 0.091235176 0.33833337
-0.073007554 0.090742186 0.33928576
-0.098358661 0.092162475 0.34
-0.096354574 0.093758591 0.33800003
-0.076397575 0.093758591 0.33800003
-0.075231433 0.093038231 0.3387143
-0.073981769 0.09252096 0.34
-0.095924787 0.095465697 0.33900002
-0.077142626 0.095224328 0.3381429
-0.075288348 0.094870634 0.3394286
-0.095209934 0.097610272 0.33900002
-0.078593388 0.097216137 0.33825001
-0.076777197 0.097070359 0.33933333
-0.075415701 0.096464276 0.34
-0.094216324 0.09803509 0.33800003
-0.093503579 0.099104218 0.33800003
-0.078904547 0.098752283 0.3387143
-0.077327617 0.098854169 0.34
-0.094056852 0.10076609 0.34
-0.093339883 0.10148305 0.34
-0.080515355 0.10146146 0.33833337
-0.079361364 0.10054302 0.33925
-0.092350498 0.10297278 0.33900002
-0.082099579 0.10338072 0.33800003
-0.080871925 0.10292126 0.33883333
-0.079538256 0.10273775 0.34
-0.091249168 0.10486116 0.33933336
-0.082455948 0.10516259 0.33800003
-0.081044652 0.10493077 0.33955553
-0.090920784 0.106546 0.33900002
-0.089227073 0.10730084 0.33800003
-0.084594205 0.10730084 0.33800003
-0.082849607 0.10697223 0.33857146
-0.081287488 0.10702658 0.33971432
-0.088776737 0.10886931 0.33900002
-0.087048918 0.10914095 0.33840001
-0.0850759 0.10876839 0.33850002
-0.083138302 0.10879746 0.33933336
-0.08186841 0.10901122 0.34
-0.088679597 0.11044514 0.34
-0.086801641 0.11105349 0.33966669
-0.084915519 0.1102659 0.34
-0.082943857 0.11008666 0.34
-0.086887181 0.11223756 0.34
-0.10655779 0.069423102 0.34100002
-0.10583871 0.069423102 0.34100002
-0.10709709 0.070681483 0.34100002
-0.10547917 0.07014218 0.34100002
-0.10260286 0.07086125 0.34100002
-0.10080519 0.07086125 0.34100002
-0.099007487 0.07086125 0.34100002
-0.097209796 0.07086125 0.34100002
-0.09505257 0.07086125 0.34100002
-0.092895344 0.07086125 0.34100002
-0.09073811 0.07086125 0.34100002
-0.088940427 0.07086125 0.34100002
-0.086962961 0.071041018 0.34100002
-0.084985495 0.071220785 0.34100005
-0.082648508 0.071400553 0.34100002
-0.081030585 0.07086125 0.34100002
-0.079232894 0.07086125 0.34100002
-0.076895893 0.070681483 0.34100002
-0.075098202 0.070321947 0.34100002
-0.072761208 0.07014218 0.34100002
-0.070963517 0.07014218 0.34100002
-0.069022015 0.070429809 0.34100005
-0.0670086 0.0709811 0.34100005
-0.065210909 0.071580328 0.34100002
-0.10727686 0.072658941 0.34100002
-0.064761482 0.0729286 0.34100005
-0.10583871 0.07517571 0.34100002
-0.064491823 0.075175717 0.34100005
-0.10511963 0.077332936 0.34100002
-0.065210909 0.076973401 0.34100002
-0.10368148 0.07949017 0.34100002
-0.066289529 0.078771099 0.34100002
-0.065570444 0.078052014 0.34100002
-0.10332194 0.080928318 0.34100002
-0.066289522 0.081647396 0.34100002
-0.10224333 0.083804622 0.34100002
-0.066529214 0.083085552 0.34100002
-0.067368127 0.085242778 0.34100002
-0.068686441 0.087160312 0.34100002
-0.070963517 0.08883816 0.34100002
-0.069884904 0.088119082 0.34100002
-0.1000861 0.090276308 0.34100002
-0.07204213 0.090995394 0.34100002
-0.071323059 0.090276308 0.34100002
-0.074199364 0.09387169 0.34100002
-0.0730009 0.092912927 0.34100005
-0.074199364 0.094950303 0.34100002
-0.096490718 0.096747994 0.34100002
-0.074918441 0.096747994 0.34100005
-0.095531955 0.099384606 0.34100002
-0.076596282 0.099384606 0.34100002
-0.075637512 0.098545685 0.34100002
-0.09505257 0.10034338 0.34100002
-0.078873351 0.10106245 0.34100002
-0.077435203 0.10034338 0.34100002
-0.093614414 0.10286014 0.34100002
-0.078993201 0.10345937 0.34100002
-0.079712287 0.10489752 0.34100002
-0.08067105 0.10753413 0.34100002
-0.079951972 0.10681506 0.34100002
-0.09073811 0.10825321 0.34100002
-0.081030585 0.10897229 0.34100002
-0.088580884 0.11184859 0.34100002
-0.084985502 0.11148906 0.34100002
-0.082348898 0.11088981 0.34100002
-0.08139012 0.11041044 0.34100002
-0.08570458 0.11256767 0.34100002
-0.10885532 0.069210924 0.34280005
-0.10759146 0.069266096 0.34200001
-0.10501288 0.069830284 0.34300002
-0.10284299 0.069468632 0.34300002
-0.10103475 0.069830276 0.34300002
-0.099226527 0.069830284 0.34300002
-0.09705665 0.069830284 0.34300002
-0.094886765 0.069830284 0.34300002
-0.093078524 0.069830276 0.34300002
-0.09127029 0.069830284 0.34300002
-0.089100413 0.069830284 0.34300002
-0.086785868 0.069540955 0.34300002
-0.084806047 0.06931486 0.34260002
-0.083023667 0.06941881 0.34240004
-0.081104405 0.069434702 0.34283337
-0.07885918 0.069366835 0.34250006
-0.076859094 0.06931486 0.34260005
-0.075081363 0.06941881 0.34240004
-0.07308127 0.069366835 0.34250006
-0.070914559 0.069366843 0.34250003
-0.068912148 0.06931486 0.34260005
-0.067139052 0.06941881 0.34240004
-0.065167986 0.069400772 0.34266669
-0.063206509 0.069540963 0.34300002
-0.10872864 0.071007527 0.34240004
-0.10326435 0.070347875 0.34200001
-0.10110079 0.070347875 0.34200001
-0.098937243 0.070347875 0.34200001
-0.096773684 0.070347875 0.34200001
-0.094970725 0.070347875 0.34200001
-0.093167767 0.070347875 0.34200001
-0.091004215 0.070347875 0.34200001
-0.088840656 0.070347875 0.34200001
-0.08703769 0.070347875 0.34200001
-0.085234731 0.070347875 0.34200001
-0.083215408 0.070636354 0.34200001
-0.080907628 0.070347875 0.34200001
-0.078744069 0.070347875 0.34200001
-0.077301696 0.070347875 0.34200001
-0.066844508 0.070347875 0.34200001
-0.064938523 0.070863008 0.34200004
-0.063082784 0.071107998 0.34262502
-0.061615262 0.070915222 0.34300002
-0.10862934 0.072723448 0.34300002
-0.06284222 0.07313057 0.34220001
-0.061253615 0.072723448 0.34300002
-0.10738815 0.074422508 0.34250003
-0.062938571 0.075108722 0.34233338
-0.061615266 0.074893333 0.34300002
-0.10645946 0.076339915 0.34300002
-0.064320363 0.077199131 0.34200001
-0.063082784 0.076889075 0.34262502
-0.10537452 0.078871444 0.34300002
-0.064998418 0.079150259 0.34224999
-0.063785143 0.0785098 0.34300002
-0.065408736 0.081082769 0.34266672
-0.10341531 0.083090439 0.34250003
-0.065585732 0.083170027 0.34233338
-0.10254316 0.084771574 0.34200001
-0.066483915 0.084771574 0.34200001
-0.065726124 0.084777176 0.34275004
-0.10182198 0.086213946 0.34200001
-0.067212418 0.08715263 0.34250003
-0.06595502 0.086466029 0.34300002
-0.10124859 0.08886835 0.34250003
-0.070330247 0.089579478 0.34200001
-0.069058247 0.088803224 0.34225002
-0.067663953 0.088506699 0.34250003
-0.070879348 0.091230631 0.34233338
-0.069390669 0.090624966 0.34300002
-0.098937243 0.093425795 0.34200001
-0.072253399 0.093425795 0.34200001
-0.071103767 0.092930488 0.34283337
-0.097779937 0.095868841 0.34300002
-0.073065735 0.094987348 0.34242859
-0.071741365 0.094783902 0.34300002
-0.096773684 0.097752899 0.34200001
-0.074416958 0.097392306 0.34200001
-0.073441863 0.096812449 0.34250003
-0.075054213 0.099243611 0.34216666
-0.07391125 0.098400369 0.34300002
-0.095610052 0.10165519 0.34300002
-0.078022882 0.10135882 0.34200001
-0.076635957 0.10125262 0.34225002
-0.075302385 0.10085834 0.34275004
-0.094794556 0.10300229 0.34266672
-0.078402601 0.10277762 0.34240004
-0.077238396 0.10295712 0.34300002
-0.093348667 0.10517006 0.34266672
-0.078603193 0.10515577 0.34228572
-0.09271688 0.10707989 0.34300002
-0.079099223 0.10704383 0.34250003
-0.080186434 0.10893127 0.34200001
-0.079335943 0.10888813 0.34300002
-0.090283021 0.11001305 0.34200001
-0.089561835 0.11145541 0.34200001
-0.083792359 0.11145541 0.34200001
-0.080802351 0.11097662 0.34242859
-0.079697594 0.11033472 0.34300002
-0.11097455 0.068715625 0.34466669
-0.10910334 0.068682745 0.34450001
-0.10692503 0.069045447 0.34450004
-0.10510889 0.069045447 0.34450001
-0.10311725 0.068371795 0.34440002
-0.10111337 0.069045447 0.34450001
-0.098933995 0.069045447 0.34450004
-0.096927799 0.068992846 0.34460002
-0.095128551 0.069098048 0.34440002
-0.093122348 0.069045447 0.34450001
-0.090857908 0.068903938 0.34457147
-0.088989578 0.068592452 0.34457147
-0.087268107 0.068527907 0.34433335
-0.085131332 0.068318993 0.34450004
-0.082951955 0.068318993 0.34450004
-0.080941111 0.068266176 0.34460002
-0.079151146 0.068371795 0.34440002
-0.077140301 0.068318993 0.34450004
-0.075084679 0.068371795 0.34440002
-0.072781034 0.068318985 0.34450001
-0.07116244 0.068371795 0.34440002
-0.069149286 0.068318993 0.34450004
-0.066969916 0.068318985 0.34450001
-0.06495443 0.068266176 0.34460002
-0.063064843 0.068527907 0.34433335
-0.061299931 0.068932727 0.34471431
-0.059428249 0.069509938 0.34500003
-0.11050382 0.070828542 0.34433335
-0.060862243 0.070655644 0.34400004
-0.059045237 0.070941873 0.34488893
-0.10930874 0.072935477 0.34400001
-0.060344093 0.072935477 0.34400004
-0.059222836 0.072983287 0.34471431
-0.10853524 0.075330026 0.34500003
-0.10749524 0.075837083 0.34400001
-0.060779333 0.074966602 0.34400001
-0.059549503 0.074845016 0.34500003
-0.10676984 0.07728789 0.34400001
-0.061066411 0.076897226 0.34457147
-0.059792005 0.076057538 0.34500003
-0.063034192 0.079018995 0.3441667
-0.061647605 0.078776717 0.34480003
-0.10489769 0.081877626 0.34500003
-0.064696506 0.081640303 0.34400001
-0.063326716 0.081019677 0.34444445
-0.061974537 0.080422603 0.34500003
-0.064789847 0.082848832 0.34450001
-0.063429557 0.082605138 0.34500003
-0.10314283 0.085992716 0.34400001
-0.064879753 0.084864929 0.34433335
-0.066147313 0.087443523 0.34400001
-0.064974137 0.086928189 0.34483337
-0.068323523 0.089619726 0.34400001
-0.06669502 0.08922261 0.34433335
-0.065612093 0.088788986 0.34500003
-0.10096662 0.091795936 0.34400001
-0.068686217 0.091070533 0.34400001
-0.067794621 0.090971515 0.34500003
-0.10024121 0.09252134 0.34400001
-0.070499726 0.093609437 0.34400001
-0.069148585 0.092776716 0.34450004
-0.067794621 0.092062779 0.34500003
-0.099297762 0.095197886 0.34450001
-0.070913658 0.095129587 0.34424999
-0.069734648 0.094487816 0.34500003
-0.072469436 0.0971319 0.34440002
-0.071390346 0.096808456 0.34480003
-0.097622573 0.099337891 0.34500003
-0.074126735 0.099775359 0.34400001
-0.072987802 0.098903775 0.34433338
-0.096614204 0.10122617 0.34400001
-0.074489437 0.10122617 0.34400001
-0.073372208 0.10079291 0.34500003
-0.096167549 0.10370295 0.34500003
-0.095888801 0.10267697 0.34400001
-0.076302938 0.10303967 0.34400001
-0.074996844 0.10299721 0.34466669
-0.094939016 0.10536828 0.34450001
-0.077021107 0.10505867 0.34437504
-0.075797237 0.10479422 0.34500003
-0.09384881 0.10682224 0.34450001
-0.078479148 0.10775478 0.34400001
-0.077628374 0.10692529 0.34424999
-0.07872095 0.10920559 0.34400004
-0.077543274 0.10894103 0.34500003
-0.077979773 0.11025055 0.34500003
-0.1124572 0.067717709 0.347
-0.11099374 0.067717709 0.347
-0.10916443 0.067717716 0.347
-0.10696925 0.067717716 0.347
-0.10477406 0.067717716 0.347
-0.10294473 0.067717709 0.347
-0.10111541 0.067717716 0.347
-0.098920226 0.067717716 0.347
-0.097090915 0.067717709 0.347
-0.095261596 0.067717716 0.347
-0.092920057 0.067425013 0.347
-0.090861879 0.066888765 0.34650001
-0.089123055 0.066931874 0.34624997
-0.087086916 0.067254268 0.34650001
-0.084894881 0.067254268 0.34650001
-0.082872659 0.067200616 0.34660003
-0.081071727 0.067307927 0.34640002
-0.07904949 0.067254268 0.34650001
-0.07685747 0.067254268 0.34650001
-0.07473693 0.067319319 0.34683335
-0.07283929 0.067620128 0.34650001
-0.07101208 0.067254268 0.34650001
-0.068985842 0.067200609 0.34660003
-0.067192927 0.067307927 0.34639999
-0.065302603 0.067388415 0.34625
-0.11282307 0.069181167 0.347
-0.11030907 0.068252176 0.34600002
-0.10884984 0.068252176 0.34600005
-0.10702579 0.068252176 0.34600002
-0.10520174 0.068252176 0.34600005
-0.10228325 0.068252176 0.34600002
-0.10082402 0.068252176 0.34600005
-0.098999962 0.068252176 0.34600002
-0.097175919 0.068252176 0.34600005
-0.094987057 0.068252176 0.34600005
-0.092798196 0.068252176 0.34600005
-0.091338962 0.068252176 0.34600002
-0.074557707 0.068252176 0.34600002
-0.073828086 0.068252176 0.34600002
-0.060870349 0.068449438 0.347
-0.059105914 0.068992406 0.34666666
-0.057699528 0.069668993 0.347
-0.11176831 0.070805848 0.34600002
-0.057517577 0.071065448 0.34620002
-0.11083435 0.073099665 0.34650001
-0.058506072 0.073359519 0.34600002
-0.057437606 0.072901778 0.3466
-0.11062788 0.074303262 0.347
-0.10957945 0.07481876 0.34600002
-0.058688477 0.075001165 0.34600002
-0.057718758 0.074798532 0.34674999
-0.10857245 0.077155992 0.34666666
-0.059308462 0.077103004 0.3464286
-0.057943434 0.076498449 0.347
-0.10754578 0.078946114 0.34650001
-0.060729593 0.079388179 0.34620002
-0.059686102 0.078580245 0.34650001
-0.06215417 0.081385337 0.34600002
-0.060945686 0.080941506 0.34660003
-0.062670521 0.08312805 0.3461667
-0.061542898 0.083004907 0.34666666
-0.10447212 0.085033432 0.34600002
-0.064343028 0.085398242 0.34600002
-0.063138343 0.08474227 0.34660003
-0.064343028 0.087587103 0.34600002
-0.063568369 0.086496696 0.34674999
-0.1033106 0.088937834 0.347
-0.064800821 0.089175016 0.34650001
-0.063797265 0.088571966 0.347
-0.066992842 0.091367051 0.34649998
-0.065330997 0.090589352 0.3466
-0.068720743 0.09378887 0.34600002
-0.067484774 0.093020491 0.34639999
-0.10111541 0.094059937 0.347
-0.070179984 0.095977731 0.34600002
-0.068819351 0.095263802 0.34650001
-0.067455903 0.094059937 0.347
-0.070423193 0.09719377 0.34600005
-0.069285229 0.096986845 0.347
-0.072368845 0.099625833 0.34600002
-0.070894733 0.099095121 0.34637499
-0.06965109 0.098816171 0.347
-0.098188505 0.10101135 0.347
-0.072785944 0.1011581 0.34625
-0.071846277 0.10101135 0.347
-0.097175919 0.10254431 0.34600002
-0.073238611 0.10286349 0.34666666
-0.096446298 0.10473317 0.34600002
-0.074750796 0.10495602 0.34633335
-0.07356891 0.10415384 0.34650001
-0.095351867 0.10655722 0.34600002
-0.076539978 0.1072171 0.34616667
-0.075504921 0.10686518 0.347
-0.094257437 0.10838126 0.34600002
-0.076674536 0.1090851 0.34649998
-0.1127374 0.065900177 0.34900004
-0.11089753 0.065900177 0.34900001
-0.10905766 0.065900177 0.34900004
-0.10684983 0.065900177 0.34900004
-0.10537794 0.065900177 0.34900001
-0.094706729 0.065900177 0.34900001
-0.09286686 0.065900177 0.34900004
-0.091026992 0.065900177 0.34900001
-0.08918713 0.065900177 0.34900004
-0.0869793 0.065900177 0.34900004
-0.084771454 0.065900177 0.34900004
-0.082931593 0.065900177 0.34900001
-0.081091732 0.065900177 0.34900004
-0.078883901 0.065900177 0.34900004
-0.077044025 0.065900177 0.34900001
-0.075204164 0.065900177 0.34900004
-0.072996333 0.065900177 0.34900004
-0.070788495 0.065900177 0.34900004
-0.069316596 0.065900177 0.34900001
-0.11457726 0.067004099 0.34900001
-0.11307699 0.067051187 0.34842861
-0.11092704 0.066961862 0.34840003
-0.10890143 0.06690757 0.34850001
-0.10687413 0.066853277 0.3486
-0.10504959 0.066961862 0.3484
-0.1030223 0.06690757 0.34850001
-0.10099333 0.066853285 0.34860003
-0.098979332 0.067275546 0.34850001
-0.09691456 0.067372069 0.34900001
-0.094655514 0.066885486 0.34800002
-0.092967689 0.066445187 0.34800002
-0.091866933 0.066445187 0.34800002
-0.088197745 0.066445187 0.34800002
-0.087096989 0.066445187 0.34800002
-0.085262403 0.066445187 0.34800002
-0.083060883 0.066445187 0.34800002
-0.080859378 0.066445187 0.34800002
-0.079024777 0.066445187 0.34800002
-0.077190191 0.066445187 0.34800002
-0.074988678 0.066445187 0.34800002
-0.072933935 0.066738725 0.34800002
-0.070952572 0.066445187 0.34800002
-0.069117978 0.066445187 0.34800002
-0.067650303 0.066445187 0.34800002
-0.065010913 0.066891894 0.3488
-0.063200727 0.067318484 0.34825003
-0.061123505 0.067264125 0.34844446
-0.058835749 0.067498714 0.34857145
-0.056952704 0.067077696 0.34900001
-0.11469992 0.068843961 0.34900004
-0.11388205 0.068646699 0.34800002
-0.05811042 0.068646699 0.34800002
-0.056750789 0.06877774 0.34866667
-0.11314821 0.070848212 0.34800002
-0.056356158 0.070950001 0.34850001
-0.11220791 0.073155731 0.34850001
-0.056356154 0.07315468 0.34850001
-0.11200146 0.074731529 0.34900001
-0.11057978 0.075618155 0.34800002
-0.056696303 0.075200662 0.34833336
-0.11052956 0.076939367 0.34900001
-0.10947903 0.077452749 0.34800002
-0.05811042 0.077452749 0.34800002
-0.056919731 0.076748088 0.3488
-0.10905767 0.079147205 0.34900001
-0.058682304 0.079090357 0.34828576
-0.05754146 0.078411259 0.34900001
-0.1069106 0.081121936 0.34800002
-0.060311932 0.081488855 0.34800002
-0.059295721 0.080871046 0.34850001
-0.10611389 0.083562881 0.34900001
-0.060765505 0.083075717 0.34850001
-0.059749298 0.082458958 0.34900001
-0.062513441 0.085524961 0.34800002
-0.061255436 0.084912948 0.34850001
-0.105076 0.086258799 0.34800002
-0.06287884 0.087239817 0.34840003
-0.061957136 0.086874634 0.34900001
-0.063319556 0.089295819 0.3484
-0.064439967 0.09152697 0.34850001
-0.063383065 0.091041185 0.34875
-0.10214065 0.093597166 0.34800002
-0.066366091 0.093046792 0.34800002
-0.0651953 0.092835799 0.34900001
-0.10243416 0.094970033 0.34900001
-0.10140681 0.095064841 0.34800002
-0.06697987 0.095033243 0.34833336
-0.10243416 0.096073955 0.34900001
-0.10096227 0.096809909 0.34900004
-0.068384141 0.096899435 0.34800002
-0.067428127 0.096740559 0.34875
-0.099395357 0.098923877 0.34866667
-0.068751059 0.098734036 0.34800002
-0.067844704 0.099017739 0.34900004
-0.070952572 0.10130246 0.34800002
-0.069227621 0.10109691 0.34855556
-0.067844704 0.10048963 0.34900001
-0.097737633 0.10387089 0.34800002
-0.072236791 0.10332052 0.34800002
-0.070720173 0.10296701 0.34866667
-0.069071285 0.10294279 0.34900004
-0.097737633 0.10460473 0.34800002
-0.072765052 0.10522623 0.3486
-0.071279123 0.10441469 0.34900004
-0.096776247 0.10695864 0.34850001
-0.074591048 0.1070148 0.34820005
-0.073548287 0.10692916 0.34900001
-0.11486379 0.065167576 0.35100001
-0.11304162 0.065129571 0.35040003
-0.11100462 0.065074228 0.35050005
-0.10896595 0.065018877 0.35060003
-0.10713043 0.065129571 0.35040003
-0.10509174 0.06507422 0.35050005
-0.10320622 0.065352619 0.35100001
-0.10080069 0.065537661 0.35100001
-0.098950282 0.065167576 0.35100001
-0.097054116 0.065136462 0.35083339
-0.094918869 0.065018877 0.35060006
-0.093091369 0.065129571 0.35040003
-0.091048688 0.06507422 0.35050005
-0.089004301 0.065018885 0.35060003
-0.087180175 0.065129571 0.35040006
-0.08513581 0.06507422 0.35050005
-0.082918487 0.06507422 0.35050005
-0.080871783 0.065018885 0.3506
-0.079052299 0.065129571 0.35040003
-0.07700561 0.06507422 0.35050005
-0.074957229 0.065018877 0.35060003
-0.073141113 0.065129571 0.35040003
-0.07136035 0.06535095 0.35000002
-0.06897366 0.065537661 0.35100001
-0.066753171 0.065537661 0.35100001
-0.064902753 0.065537661 0.35100001
-0.063052356 0.065537661 0.35100001
-0.061572023 0.065537661 0.35100001
-0.11612315 0.066890001 0.35033339
-0.11513837 0.066397965 0.35033339
-0.1045728 0.066089004 0.35000002
-0.10309669 0.066089004 0.35000002
-0.10125156 0.066089004 0.35000002
-0.099131368 0.066520974 0.35033339
-0.0968697 0.066489503 0.35016674
-0.068506375 0.066183418 0.35050002
-0.066932015 0.066458032 0.35000002
-0.065086886 0.066089004 0.35000002
-0.062872723 0.066089004 0.35000002
-0.060715616 0.066151947 0.35033339
-0.059266459 0.066552445 0.35050002
-0.057023238 0.066397965 0.35033339
-0.055246152 0.067319095 0.35000002
-0.11601266 0.068672195 0.35000002
-0.11560395 0.069978647 0.35100001
-0.055650722 0.069238484 0.35100001
-0.055650719 0.071088895 0.35100001
-0.11306044 0.073469549 0.35000002
-0.055426039 0.07307186 0.35075003
-0.11285292 0.075051665 0.35050002
-0.054754112 0.074945666 0.35000002
-0.053031988 0.075437695 0.35000002
-0.1126433 0.076640114 0.35100001
-0.11144459 0.077233307 0.35033339
-0.056599248 0.077528849 0.35000002
-0.054978266 0.076661393 0.35025001
-0.053278003 0.076421767 0.35000002
-0.11056467 0.079032436 0.3506667
-0.056917485 0.078918345 0.35060003
-0.055650719 0.07812044 0.35100001
-0.10968265 0.080711007 0.35100001
-0.058444384 0.081219129 0.35000002
-0.057644948 0.080838829 0.35075003
-0.059101623 0.083011158 0.35040006
-0.10656997 0.085031226 0.35050002
-0.060658548 0.085278429 0.35000002
-0.059579115 0.084832907 0.35060006
-0.060756989 0.086896174 0.35057148
-0.10494183 0.088230647 0.35000002
-0.062319174 0.089153215 0.35000002
-0.061386984 0.089037858 0.35100001
-0.10420378 0.090444811 0.35000002
-0.062500894 0.091286652 0.35040003
-0.061572023 0.090703219 0.35100001
-0.064717852 0.093397029 0.35000002
-0.062980078 0.093113877 0.35060003
-0.065165974 0.094989315 0.35042861
-0.10162058 0.097456329 0.35000002
-0.066600606 0.097290389 0.35020003
-0.065548882 0.096486881 0.35050002
-0.10228101 0.098104849 0.35100001
-0.1005135 0.09856341 0.35000002
-0.066689074 0.098874152 0.3506667
-0.10006052 0.10143559 0.35100001
-0.068039097 0.10151563 0.35000002
-0.067059159 0.1009699 0.3506667
-0.09932036 0.103286 0.35100001
-0.068223611 0.10317625 0.35000002
-0.067493334 0.10291592 0.35100001
-0.070745312 0.10545193 0.35000002
-0.068938136 0.10508062 0.35028574
-0.067493334 0.10402616 0.35100001
-0.098580196 0.10624665 0.35100001
-0.07271345 0.10717404 0.35000002
-0.071261473 0.10716096 0.35060006
-0.06897366 0.10683879 0.35100004
-0.10614116 0.061618876 0.354
-0.11073741 0.063497566 0.35200003
-0.10892683 0.062980995 0.35275003
-0.10703286 0.062977083 0.35325006
-0.10515223 0.063115232 0.35350001
-0.10322051 0.063299373 0.35385716
-0.10095059 0.063338295 0.3536
-0.099104948 0.063451521 0.35340002
-0.097046018 0.063394904 0.35350001
-0.094985418 0.063338295 0.3536
-0.093143158 0.063451521 0.35340002
-0.091082536 0.063394904 0.35350001
-0.089020252 0.063338295 0.3536
-0.087181352 0.063451521 0.35340002
-0.085119061 0.063394904 0.35350001
-0.082882755 0.063394904 0.35350001
-0.080629855 0.063009076 0.35342863
-0.078983895 0.063451521 0.35340002
-0.077051498 0.063536428 0.35325003
-0.062471531 0.063858345 0.354
-0.061351795 0.063858345 0.354
-0.11296423 0.064239845 0.35200006
-0.11110854 0.064239837 0.35200003
-0.10925286 0.064239845 0.35200006
-0.10702606 0.064239845 0.35200006
-0.10479923 0.064239845 0.35200006
-0.1028957 0.064646251 0.35260004
-0.10093942 0.064685203 0.35200003
-0.098861061 0.064239845 0.35200006
-0.097005375 0.064239837 0.35200003
-0.095149696 0.064239845 0.35200006
-0.092922881 0.064239845 0.35200006
-0.091067195 0.064239837 0.35200003
-0.089211516 0.064239845 0.35200006
-0.086984709 0.064239845 0.35200006
-0.084757887 0.064239845 0.35200006
-0.082902201 0.064239837 0.35200003
-0.081046522 0.064239845 0.35200006
-0.078819707 0.064239845 0.35200006
-0.076964028 0.064239837 0.35200003
-0.07484179 0.064331084 0.35250002
-0.072729647 0.064792134 0.35366666
-0.070912786 0.065005578 0.35328573
-0.06884893 0.06479267 0.35339999
-0.067060307 0.064941965 0.35339999
-0.064992324 0.06488578 0.35350001
-0.062995054 0.064747848 0.35275
-0.061063774 0.065049805 0.35287502
-0.059210539 0.065425865 0.35280001
-0.05469586 0.069064602 0.35200003
-0.053734675 0.069633 0.35300002
-0.11667559 0.07017801 0.35200003
-0.055066995 0.070920281 0.35200006
-0.054871015 0.072720818 0.35233337
-0.05469586 0.077600732 0.35200003
-0.11222195 0.079085276 0.35200006
-0.11147968 0.079827547 0.35200003
-0.056551538 0.079827547 0.35200003
-0.055042427 0.078967683 0.35280001
-0.11254076 0.080798715 0.35300002
-0.11118772 0.080998704 0.35225004
-0.10925286 0.08131209 0.35200003
-0.056670979 0.081299774 0.35275
-0.055673849 0.080540441 0.35350001
-0.11211308 0.082520582 0.354
-0.11067981 0.082287475 0.35300002
-0.10921236 0.082706019 0.35266671
-0.10776832 0.083538905 0.35200003
-0.058036085 0.083167769 0.35200003
-0.056863539 0.082886383 0.35328573
-0.10920051 0.084844202 0.35383332
-0.10776832 0.084281176 0.35200003
-0.058547404 0.084971197 0.35240003
-0.057205409 0.08470019 0.35374999
-0.10882637 0.086822972 0.35371429
-0.10687997 0.087332897 0.35233337
-0.0602629 0.087992541 0.35200003
-0.058837794 0.086966448 0.35300004
-0.057619344 0.086626276 0.354
-0.10838063 0.088492498 0.354
-0.10738532 0.088990152 0.35400003
-0.10584133 0.089731283 0.35300002
-0.060510322 0.089229666 0.35200006
-0.059229292 0.088988595 0.35342857
-0.10532028 0.091089785 0.35250002
-0.060866468 0.091178425 0.35242862
-0.059553623 0.090895355 0.35366666
-0.10405696 0.093188442 0.35200003
-0.06323199 0.093930714 0.35200003
-0.061258558 0.093202382 0.35285717
-0.059858814 0.092224948 0.354
-0.06323199 0.095044129 0.35200006
-0.061371405 0.094928183 0.35240003
-0.10331468 0.097642079 0.35200003
-0.064653397 0.097239345 0.35233337
-0.063257277 0.096881442 0.35283336
-0.061396267 0.096838161 0.35340002
-0.10234591 0.099267431 0.35250002
-0.066201076 0.099868894 0.35200003
-0.064868696 0.098989457 0.35283336
-0.062994078 0.098794058 0.354
-0.10245016 0.10085434 0.35350001
-0.10151864 0.10066772 0.35350001
-0.066201076 0.10098231 0.35200003
-0.065191567 0.10091315 0.35342863
-0.10063066 0.10313014 0.35300002
-0.066573218 0.10310372 0.35240003
-0.065519914 0.10282795 0.35366666
-0.10016925 0.10566176 0.354
-0.099886283 0.1046189 0.35300002
-0.067132115 0.10523851 0.35300002
-0.06583073 0.10416878 0.354
-0.10728955 0.061226077 0.35533333
-0.10509162 0.061504625 0.35550004
-0.10293873 0.061562642 0.35583335
-0.10098542 0.061716776 0.35600004
-0.099187657 0.061562642 0.35583335
-0.096890479 0.06153363 0.35566664
-0.095104873 0.061591651 0.35600001
-0.093228102 0.061591651 0.35600001
-0.090975985 0.061967008 0.35600004
-0.089099221 0.061967008 0.35600001
-0.087222449 0.061967008 0.35600004
-0.08497034 0.061967008 0.35600004
-0.083093561 0.061967008 0.35600001
-0.081478074 0.061879978 0.35550001
-0.10307231 0.062541537 0.35500002
-0.10120081 0.062541537 0.35500002
-0.09895502 0.062541537 0.35500002
-0.097083524 0.062541537 0.35500002
-0.095212027 0.062541537 0.35500002
-0.092966229 0.062541537 0.35500002
-0.091094732 0.062541537 0.35500002
-0.089223236 0.062541537 0.35500002
-0.086977445 0.062541537 0.35500002
-0.085105941 0.062541537 0.35500002
-0.083234452 0.062541537 0.35500002
-0.081737258 0.062541537 0.35500002
-0.079491459 0.062541537 0.35500002
-0.077087909 0.063468419 0.35600001
-0.075211138 0.063468419 0.35600004
-0.072959021 0.063468419 0.35600004
-0.071082249 0.063468419 0.35600001
-0.069205485 0.063468419 0.35600004
-0.066953361 0.063468419 0.35600004
-0.06507659 0.063468419 0.35600001
-0.063082173 0.063349567 0.35533333
-0.074999869 0.064038739 0.35500002
-0.072754085 0.064038739 0.35500002
-0.070882574 0.064038739 0.35500002
-0.069011092 0.064038739 0.35500002
-0.066765293 0.064038739 0.35500002
-0.064893797 0.064038739 0.35500002
-0.063770898 0.064038739 0.35500002
-0.059279308 0.065535933 0.35500002
-0.054451473 0.08093942 0.35525
-0.11242978 0.083502293 0.35500002
-0.11130689 0.083502293 0.35500002
-0.055239182 0.082870245 0.35549998
-0.11099509 0.08489766 0.35520002
-0.0565117 0.085247025 0.35525
-0.055392474 0.085088782 0.35600001
-0.11055829 0.086870983 0.35500002
-0.056947213 0.087193452 0.3554
-0.11049437 0.088241749 0.35600001
-0.10918586 0.089241549 0.35500002
-0.058530707 0.089491077 0.35500002
-0.05729216 0.088950798 0.35583335
-0.1087628 0.090678051 0.35525
-0.10726508 0.090864673 0.35525
-0.058717858 0.09117543 0.35500002
-0.057944875 0.091244578 0.35600004
-0.060027905 0.093608364 0.35500002
-0.058987446 0.092990555 0.35550001
-0.060486749 0.095239513 0.35549998
-0.059196055 0.094497643 0.35600004
-0.10523942 0.096874878 0.35600001
-0.060776502 0.09772566 0.35500002
-0.10471731 0.098611891 0.35550001
-0.062523231 0.099721931 0.35500002
-0.061193604 0.098918431 0.35525
-0.064519495 0.10146865 0.35500002
-0.063110359 0.10123692 0.35550004
-0.061448179 0.1005033 0.35600004
-0.10194941 0.10259154 0.35500002
-0.064706646 0.10315299 0.35500002
-0.063700303 0.10275542 0.35600004
-0.10120081 0.10446305 0.35500002
-0.063950531 0.1040066 0.35600001
-0.10628785 0.06063544 0.35700002
-0.10478222 0.06063544 0.35700005
-0.10290018 0.06063544 0.35700002
-0.10120635 0.060823642 0.35700002
-0.098759696 0.06063544 0.35700005
-0.096877649 0.06063544 0.35700002
-0.094995618 0.06063544 0.35700005
-0.093113571 0.06063544 0.35700002
-0.09123154 0.061011847 0.35700005
-0.088973098 0.061011847 0.35700005
-0.087216519 0.061137319 0.35700005
-0.085209012 0.061388262 0.35700005
-0.083326966 0.061388258 0.35700002
-0.078810081 0.06289389 0.35700002
-0.076928042 0.06289389 0.35700005
-0.075046003 0.06289389 0.35700002
-0.073163964 0.06289389 0.35700005
-0.070905522 0.06289389 0.35700005
-0.069023475 0.06289389 0.35700002
-0.067141436 0.06289389 0.35700005
-0.064882994 0.06289389 0.35700005
-0.063377358 0.06289389 0.35700002
-0.054343566 0.083219916 0.35700005
-0.053590748 0.083596319 0.35700002
-0.11268678 0.085101947 0.35700002
-0.054343566 0.085101947 0.35700002
-0.053590748 0.085101947 0.35700002
-0.11231038 0.086231172 0.35700002
-0.11155757 0.087736808 0.35700002
-0.055096388 0.086983994 0.35700005
-0.053590748 0.086607583 0.35700002
-0.11080474 0.089242436 0.35700002
-0.056602012 0.089618847 0.35700002
-0.055598259 0.088740557 0.35700005
-0.05735483 0.091124475 0.35700002
-0.10704067 0.093006514 0.35700002
-0.058107644 0.093382925 0.35700002
-0.05735483 0.092630103 0.35700002
-0.058484051 0.094888553 0.35700002
-0.10553504 0.096017778 0.35700002
-0.061118908 0.096770599 0.35700002
-0.059613276 0.096017778 0.35700002
-0.06036609 0.098652631 0.35700002
-0.061118908 0.10128749 0.35700002
-0.062875479 0.103295 0.35700005
-0.061495315 0.10241672 0.35700002
-0.1046122 0.059461068 0.35900003
-0.10309815 0.059461068 0.35900006
-0.10082704 0.059461068 0.35900006
-0.098934457 0.059461068 0.35900003
-0.097041875 0.059461068 0.35900006
-0.094770782 0.059461068 0.35900006
-0.092878193 0.059461068 0.35900003
-0.090985611 0.059461068 0.35900006
-0.089093029 0.059461068 0.35900003
-0.087578952 0.059461068 0.35900003
-0.10507573 0.060050365 0.35800001
-0.10281095 0.060050365 0.35800001
-0.10092364 0.060050365 0.35800001
-0.099036336 0.060050365 0.35800001
-0.096771561 0.060050365 0.35800001
-0.094884247 0.060050365 0.35800001
-0.09299694 0.060050365 0.35800001
-0.091109626 0.060050365 0.35800001
-0.089222312 0.060050365 0.35800001
-0.086903296 0.060419429 0.35840002
-0.085275613 0.06060956 0.35833335
-0.083298042 0.061268728 0.3585
-0.081144176 0.061732169 0.35900006
-0.078873076 0.061732169 0.35900006
-0.076980487 0.061732169 0.35900003
-0.074983329 0.061267674 0.3585
-0.073006071 0.06154291 0.35900003
-0.070924222 0.061732169 0.35900003
-0.069031648 0.061732169 0.35900006
-0.06676054 0.061732169 0.35900006
-0.06524647 0.061732169 0.35900003
-0.080540687 0.062315136 0.35800001
-0.079030834 0.062315136 0.35800001
-0.07714352 0.062315136 0.35800001
-0.074878752 0.062315136 0.35800001
-0.072991438 0.062315136 0.35800001
-0.071104124 0.062315136 0.35800001
-0.068839356 0.062315136 0.35800001
-0.066952042 0.062315136 0.35800001
-0.065064728 0.062315136 0.35800001
-0.053740866 0.082698092 0.35800001
-0.054495789 0.087982565 0.35800001
-0.053740866 0.087982565 0.35800001
-0.054747432 0.089240775 0.35800001
-0.053815924 0.08923994 0.3585
-0.05630761 0.091153249 0.35800001
-0.054987945 0.090814926 0.35874999
-0.10862386 0.092641324 0.3585
-0.056461319 0.093019307 0.3585
-0.055405043 0.092392012 0.35900003
-0.10658558 0.094021961 0.35800001
-0.058270413 0.095531806 0.35800001
-0.057089511 0.094858147 0.35871431
-0.060535185 0.09741912 0.35800001
-0.058940299 0.096848123 0.35840002
-0.05767614 0.096555695 0.35900003
-0.059947241 0.098069765 0.35900003
-0.060535185 0.10081628 0.35800001
-0.059947241 0.10071938 0.35900003
-0.10414446 0.058867555 0.36000001
-0.10276818 0.058568694 0.36050004
-0.101068 0.058628466 0.36040005
-0.098967731 0.058568694 0.36050004
-0.096865796 0.058508921 0.36060002
-0.0949881 0.058628466 0.36040005
-0.093063757 0.058508921 0.36060005
-0.09118817 0.058628466 0.36040005
-0.089341193 0.058867555 0.36000001
-0.086544365 0.059792329 0.36100003
-0.085402489 0.059792329 0.36100003
-0.076267481 0.059792329 0.36100003
-0.075506225 0.059792329 0.36100003
-0.070938729 0.059792332 0.36100003
-0.085021861 0.060553581 0.36100003
-0.08300361 0.060849279 0.36050004
-0.080897242 0.06079014 0.36060005
-0.079028413 0.060908426 0.36040005
-0.077052951 0.060756594 0.36040005
-0.074917495 0.060385842 0.36000001
-0.07294853 0.06075659 0.36040005
-0.071011953 0.06079014 0.36060005
-0.069148593 0.060908418 0.36040005
-0.067069776 0.061258212 0.36066669
-0.054116149 0.091258183 0.36050004
-0.055255916 0.093157098 0.36050004
-0.056318518 0.095306367 0.36000001
-0.055357069 0.09514156 0.36033338
-0.056903183 0.097212873 0.36050004
-0.055713706 0.096712984 0.36100003
-0.060114227 0.099481642 0.36000001
-0.059056897 0.098859623 0.36050004
-0.057616834 0.098616108 0.36100003
-0.059519961 0.10051924 0.36100003
-0.10052456 0.057667881 0.36200002
-0.09887062 0.057413429 0.36200005
-0.097094081 0.05705836 0.36237502
-0.094930314 0.057364799 0.36250004
-0.093104087 0.057465829 0.36233336
-0.091745928 0.057667881 0.36200002
-0.090219207 0.058431238 0.36200002
-0.088554762 0.058975384 0.36300001
-0.087108999 0.058953822 0.36240003
-0.0848682 0.059159707 0.36237499
-0.082823366 0.059200589 0.362625
-0.080968142 0.05939649 0.36257145
-0.079002514 0.059505839 0.36257145
-0.0771292 0.059558064 0.3626667
-0.074923575 0.059598055 0.36260003
-0.07314451 0.059658039 0.36250001
-0.071021855 0.058921535 0.36219999
-0.069035858 0.05968532 0.36219999
-0.068081789 0.060721319 0.36200002
-0.067318432 0.060721319 0.36200002
-0.11082991 0.093545765 0.36200002
-0.054723002 0.093164086 0.36200002
-0.10960513 0.094569653 0.36300001
-0.10777647 0.095835842 0.36200002
-0.054760531 0.09513814 0.36225
-0.054760531 0.097048119 0.36225003
-0.058158118 0.099652641 0.36200002
-0.056748733 0.099476904 0.36274999
-0.055562474 0.098261461 0.36250001
-0.096090697 0.055683758 0.36400002
-0.096090697 0.056451332 0.36400002
-0.094939336 0.056451332 0.36400002
-0.086999118 0.0576813 0.36450002
-0.084869973 0.057620257 0.36460003
-0.082979217 0.057742335 0.36440006
-0.081025772 0.057620257 0.36460003
-0.079312272 0.057681296 0.36450002
